ply
		format ascii 1.0
		element vertex 3938
		property float x
		property float y
		property float z
		property uchar blue
		property uchar green
		property uchar red
		end_header
2.433442 1.356772 5.480660 77 56 51
2.456916 1.533660 5.466937 128 98 78
2.447940 1.291866 5.443594 179 140 116
2.450153 1.349841 5.408395 213 174 150
2.465360 1.317078 5.437523 80 44 34
2.465360 1.317078 5.437523 80 44 34
2.466796 1.338600 5.435744 213 174 147
2.601382 -0.627074 5.723158 224 182 164
2.603391 -0.077598 5.715309 177 128 118
2.608488 -0.007961 5.718903 174 126 116
2.640651 0.522549 5.612043 177 132 122
2.640651 0.522549 5.612043 177 132 122
-2.530391 1.351175 4.310403 133 113 102
-2.977533 1.350696 6.927988 66 47 37
-2.806339 1.606810 6.570704 138 127 119
-2.926524 0.655568 7.051665 49 30 24
-2.917137 0.939291 7.010881 145 109 95
-2.918148 1.017189 7.009724 143 109 93
-2.917685 0.977532 7.014540 142 106 92
-2.914952 0.803378 7.034716 154 115 100
-2.914952 0.803378 7.034716 154 115 100
-2.913851 0.841118 7.032796 127 92 82
-2.952189 -0.928003 7.297467 77 53 42
-2.913986 0.638745 7.061649 151 107 98
-2.897105 1.460404 6.949725 53 26 19
-2.902138 0.956372 7.010931 53 31 29
-2.901326 0.981594 7.010130 95 51 37
-2.901056 1.062291 7.004112 93 53 39
-2.912168 0.501382 7.081032 148 107 99
-2.899395 0.823015 7.025459 57 33 31
-2.898597 1.005855 7.012238 60 30 16
-2.882001 1.439433 6.958202 163 123 112
-2.896407 0.515487 7.076499 89 49 33
-2.912371 -0.159861 7.179754 156 115 105
-2.914074 -0.789993 7.268064 165 123 111
-2.878461 0.985717 7.054126 191 146 130
-2.898313 -0.776428 7.262581 89 40 32
-2.897489 -1.446978 7.358115 100 49 32
-2.670812 1.620502 6.701924 47 33 28
-2.653574 1.596901 6.683568 58 45 47
-2.662481 1.317631 6.820795 205 162 145
-2.638821 1.543638 6.745346 101 72 77
-2.644449 1.503347 6.782460 197 158 144
-2.616418 1.578709 6.677774 119 103 113
-2.616418 1.578709 6.677774 119 103 113
-2.641220 1.426856 6.798227 118 86 74
-2.639747 1.405807 6.802693 116 87 73
-2.641800 1.253695 6.824513 204 162 144
-2.642004 0.610566 6.908217 220 171 155
-2.634632 1.041278 6.850334 211 166 150
-2.626607 1.265509 6.811854 203 161 144
-2.626607 1.265509 6.811854 203 161 144
-2.627208 1.266943 6.816591 203 161 144
-2.627208 1.266943 6.816591 203 161 144
-2.622299 1.516118 6.780013 97 71 61
-2.585340 1.626871 6.644549 50 45 51
-2.611064 1.135464 6.832741 120 89 85
-2.611010 0.639332 6.892164 131 97 94
-2.601049 1.234299 6.811818 97 68 77
-2.607365 0.713421 6.897642 106 86 102
-2.598342 1.178711 6.832955 107 83 89
-2.597519 0.829641 6.864602 96 78 92
-2.613520 0.080538 6.986101 138 99 92
-2.623240 -1.493910 7.174375 238 186 169
-2.537143 1.583983 6.627019 80 61 72
-2.595783 0.128979 6.977787 119 86 99
-2.539263 1.556310 6.653933 94 72 85
-2.610021 -0.962847 7.135844 148 108 100
-2.592898 -0.019836 7.013624 114 95 114
-2.590844 0.205813 6.999372 111 85 100
-2.513468 1.579522 6.588719 75 59 65
-2.550545 1.381081 6.755597 63 45 53
-2.528577 1.536853 6.671100 106 88 100
-2.597362 -1.116199 7.154733 100 69 82
-2.600409 -1.592790 7.226985 150 108 94
-2.594644 -1.551212 7.212265 129 106 116
-2.535817 1.256731 6.760862 63 41 48
-2.586150 -1.003760 7.138653 119 95 117
-2.531635 0.615995 6.847835 94 69 74
-2.564342 -1.439844 7.167810 108 94 120
-2.489757 1.545485 6.646694 121 105 114
-2.443725 1.589923 6.559673 56 48 46
-2.458736 1.238235 6.700651 128 101 110
-2.443367 1.491498 6.664109 81 64 72
-2.459045 -0.599157 6.986373 84 66 85
-2.416925 0.740876 6.755648 85 67 81
-2.416925 0.740876 6.755648 85 67 81
-2.402039 1.003339 6.708141 143 117 130
-2.414551 0.175982 6.841479 65 50 63
-2.423870 -0.598384 6.956143 73 56 74
-2.411252 0.210180 6.838619 67 50 59
-2.411252 0.210180 6.838619 67 50 59
-2.428064 -0.969653 7.015189 73 56 71
-2.408882 -0.740528 6.974352 62 49 67
-2.409536 -1.288173 7.041557 123 105 122
-2.390255 -0.253583 6.888513 68 57 70
-2.399539 -1.306351 7.034527 78 58 78
-2.364662 0.176681 6.793451 76 56 65
-2.364662 0.176681 6.793451 76 56 65
-2.351882 0.204312 6.787401 81 62 69
-2.344619 0.725482 6.718338 78 62 70
-2.365932 -0.987373 6.968427 118 102 133
-2.343579 -0.229563 6.840547 129 106 125
-2.348930 -0.701813 6.922777 69 54 74
-2.348930 -0.701813 6.922777 69 54 74
-2.341083 -0.259115 6.854030 67 53 63
-2.299520 -0.260167 6.822161 60 43 48
-2.313391 -1.329993 6.999485 89 65 77
-2.285530 -0.269771 6.810471 124 101 118
-1.832307 1.189134 4.566300 60 44 80
-1.832307 1.189134 4.566300 60 44 80
-2.255550 1.001049 6.604342 68 52 63
-2.255550 1.001049 6.604342 68 52 63
-2.276586 -0.432950 6.833204 88 72 84
-2.274788 -0.998883 6.898311 119 104 128
-2.272666 -0.424162 6.840363 70 49 59
-2.260669 0.197583 6.731153 130 104 118
-2.245668 0.986100 6.593050 129 108 119
-1.819883 1.113307 4.562356 55 42 84
-1.819883 1.113307 4.562356 55 42 84
-2.272063 -0.970148 6.908991 137 118 136
-2.265120 -0.748395 6.869298 60 49 66
-2.238259 0.839090 6.612736 147 111 104
-2.275862 -1.455129 6.999315 128 109 126
-2.275862 -1.455129 6.999315 128 109 126
-2.262324 -0.554793 6.862882 55 41 57
-2.271764 -1.612891 7.009036 74 57 70
-2.266317 -1.427147 6.979927 56 42 54
-2.232345 0.753499 6.626770 43 25 20
-2.217278 0.831600 6.601345 47 27 21
-2.217278 0.831600 6.601345 47 27 21
-2.249395 -1.629184 6.998896 92 63 87
-2.249395 -1.629184 6.998896 92 63 87
-2.231907 -0.714782 6.858797 87 79 99
-2.214628 0.271872 6.688867 67 50 63
-2.214628 0.271872 6.688867 67 50 63
-2.194101 0.850570 6.578386 244 175 158
-2.214442 -0.430129 6.791670 54 37 50
-2.217975 -0.719308 6.841644 75 66 83
-1.786064 1.126947 4.541428 54 40 69
-2.212579 -0.498647 6.799696 120 101 122
-2.198188 0.582131 6.646851 80 62 73
-2.190659 0.778349 6.596172 248 179 162
-2.198479 -0.265796 6.747508 77 54 61
-2.202623 -0.753409 6.826469 47 39 55
-2.169737 0.826782 6.565094 43 24 17
-2.169737 0.826782 6.565094 43 24 17
-2.175752 0.389364 6.642991 70 55 67
-2.197242 -1.628950 6.953709 87 66 88
-2.182074 -0.433489 6.788100 72 56 70
-2.183454 -1.449332 6.892148 129 109 126
-2.188563 -1.607049 6.946208 142 117 129
-2.191389 -1.438922 6.947422 75 60 72
-2.191389 -1.438922 6.947422 75 60 72
-2.149884 0.992272 6.540395 58 44 50
-2.172734 -0.853914 6.825611 61 51 72
-2.149037 0.836795 6.553431 150 108 106
-2.146393 0.897481 6.549850 40 22 16
-2.148560 0.691405 6.596997 54 41 56
-2.156234 -0.268869 6.732296 66 41 48
-2.165699 -1.156665 6.866984 78 62 76
-2.139669 0.847959 6.551919 88 53 55
-2.130127 0.956717 6.532262 66 46 56
-2.156922 -1.144078 6.863436 137 117 136
-2.145040 -0.122289 6.709473 65 48 63
-1.720936 1.387720 4.387087 142 123 114
-1.720936 1.387720 4.387087 142 123 114
-2.127535 -0.270907 6.701836 63 44 51
-2.120387 -0.582015 6.750285 65 55 80
-2.121491 -1.164491 6.839650 77 61 83
-2.088144 0.181765 6.630113 63 45 54
-2.080825 -0.274167 6.683183 80 58 70
-2.066583 0.822848 6.519366 130 108 119
-2.058544 0.374013 6.553722 66 54 69
-1.626053 1.356622 4.114733 54 37 49
-2.054144 -0.260966 6.652827 127 107 119
-1.681812 1.107118 4.461903 52 39 66
-2.050847 -0.135711 6.626359 78 61 76
-2.050847 -0.135711 6.626359 78 61 76
-2.049552 -0.283269 6.663400 60 48 56
-2.049552 -0.283269 6.663400 60 48 56
-2.037300 0.456245 6.550131 63 51 65
-2.051352 -1.449432 6.835404 76 59 74
-2.032808 -0.266672 6.643737 81 56 61
-2.022478 0.567685 6.516420 66 53 62
-2.022478 0.567685 6.516420 66 53 62
-2.036784 -1.170934 6.794577 129 108 129
-2.031155 -0.851656 6.734630 70 59 81
-2.036741 -1.563985 6.841944 78 61 74
-2.036741 -1.563985 6.841944 78 61 74
-1.658124 1.245483 4.417636 90 69 106
-1.658124 1.245483 4.417636 90 69 106
-2.034487 -1.549838 6.841836 76 52 70
-2.010089 0.180905 6.559698 51 40 51
-1.605372 1.362504 4.133992 255 221 206
-1.605372 1.362504 4.133992 255 221 206
-2.018320 -0.951501 6.737042 71 52 61
-2.018320 -0.951501 6.737042 71 52 61
-2.020541 -1.194996 6.785203 50 43 64
-1.891060 0.848017 5.855025 41 34 50
-1.998469 -0.293942 6.614297 63 49 61
-2.007792 -1.026435 6.742500 64 55 76
-2.007792 -1.026435 6.742500 64 55 76
-1.644642 1.106535 4.448005 57 42 74
-1.644565 1.068775 4.454060 52 37 69
-1.876019 0.925630 5.829297 41 40 48
-1.982496 0.180074 6.549140 53 40 53
-1.976162 0.008487 6.538858 83 61 77
-1.970409 0.402142 6.499257 128 105 118
-1.976516 -1.573357 6.806035 78 57 74
-1.956969 0.203034 6.529480 119 99 122
-1.951691 0.004688 6.546980 78 55 72
-1.951691 0.004688 6.546980 78 55 72
-1.954424 -0.136519 6.578092 125 103 123
-1.942445 0.559972 6.456951 41 34 42
-1.942114 -0.692453 6.642209 70 55 74
-1.942114 -0.692453 6.642209 70 55 74
-1.833433 0.887500 5.820354 81 69 112
-1.948576 -1.756286 6.802893 137 117 136
-1.938181 -0.653959 6.636363 65 46 57
-1.944913 -1.461179 6.772343 76 60 80
-1.919071 0.496170 6.458567 106 89 108
-1.925057 -0.290309 6.578403 83 60 75
-1.816613 0.907760 5.802154 40 34 59
-1.917971 0.001096 6.540659 68 55 74
-1.920149 -1.333548 6.725708 74 60 77
-1.804275 0.846652 5.795583 34 30 32
-1.918698 -0.849131 6.698863 56 47 68
-1.918698 -0.849131 6.698863 56 47 68
-1.912860 -1.195190 6.700933 51 43 55
-1.910788 -1.573715 6.744841 86 72 90
-1.813845 0.755923 5.913782 116 99 153
-1.892392 0.000590 6.519701 60 44 59
-1.890263 -0.653831 6.598925 55 39 50
-1.885249 -1.200435 6.686421 44 36 60
-1.885249 -1.200435 6.686421 44 36 60
-1.792489 0.786950 5.905674 53 53 77
-1.858054 0.016434 6.468807 121 99 120
-1.858553 0.432314 6.428895 35 29 42
-1.769955 0.202859 5.934864 91 79 130
-1.843355 0.002210 6.474603 46 36 50
-1.843355 0.002210 6.474603 46 36 50
-1.843355 0.002210 6.474603 46 36 50
-1.846518 -1.196091 6.654331 55 47 70
-1.741616 0.854584 5.749156 74 69 104
-1.741616 0.854584 5.749156 74 69 104
-1.742868 0.879095 5.758172 40 36 41
-1.759205 0.184293 5.943699 113 97 150
-1.757697 0.212003 5.940349 29 25 64
-1.833535 -0.991572 6.610545 75 55 75
-1.820418 -0.169445 6.489788 69 54 75
-1.723987 0.850034 5.747500 38 29 49
-1.807828 -0.596809 6.533175 62 52 73
-1.783719 -0.170804 6.471861 68 52 69
-1.784232 -1.207767 6.625727 65 53 71
-1.784232 -1.207767 6.625727 65 53 71
-1.680935 0.803868 5.713951 98 81 125
-1.678194 0.839455 5.691465 53 49 64
-1.770585 -1.308048 6.615132 132 115 136
-1.760902 -0.491015 6.505251 77 59 78
-1.762724 -1.723477 6.681669 67 49 65
-1.486846 1.046451 4.346533 63 44 90
-1.748819 -0.639408 6.511087 124 108 129
-1.748819 -0.639408 6.511087 124 108 129
-1.693786 0.635150 5.970819 87 72 102
-1.748423 -1.515352 6.635982 77 59 77
-1.748423 -1.515352 6.635982 77 59 77
-1.673224 0.776442 5.813952 50 49 72
-1.743570 -0.320698 6.464583 61 46 66
-1.650118 0.829345 5.692419 98 81 127
-1.673079 0.289843 5.986935 18 18 42
-1.673079 0.289843 5.986935 18 18 42
-1.722806 -0.606380 6.480712 65 55 74
-1.722806 -0.606380 6.480712 65 55 74
-1.454539 1.263764 4.236855 59 48 83
-1.718626 -0.465534 6.464194 127 108 128
-1.725137 -1.689667 6.669360 86 63 80
-1.662978 0.618367 5.924695 49 37 75
-1.714410 -0.481037 6.461554 52 42 58
-1.647594 0.749260 5.808311 106 91 144
-1.624190 0.788611 5.673127 103 85 130
-1.702975 -0.174174 6.404004 63 52 76
-1.705133 -0.659438 6.483491 125 106 124
-1.648966 0.655511 5.924174 109 91 135
-1.700045 -1.205826 6.562613 73 62 78
-1.698516 -1.728513 6.637466 79 62 79
-1.693176 -0.674250 6.475739 51 41 53
-1.693176 -0.674250 6.475739 51 41 53
-1.606974 0.907589 5.652359 56 50 73
-1.440073 1.088477 4.310720 63 48 94
-1.607261 0.819697 5.667480 61 55 74
-1.607261 0.819697 5.667480 61 55 74
-1.602868 0.896811 5.649092 47 40 63
-1.427995 1.230181 4.257620 89 72 101
-1.427995 1.230181 4.257620 89 72 101
-1.671857 -1.207373 6.548804 69 57 78
-1.568151 1.007867 5.437939 73 61 92
-1.664907 -1.361416 6.563902 68 56 78
-1.581613 0.787578 5.667248 104 83 129
-1.578559 0.909016 5.634537 44 38 60
-1.646204 -0.380028 6.396173 66 54 72
-1.645650 -0.023623 6.351098 74 59 78
-1.642883 -0.873084 6.470548 66 55 70
-1.398100 1.260275 4.196604 60 49 90
-1.561579 0.806782 5.638438 44 37 66
-1.555757 0.935152 5.620690 59 46 79
-1.555757 0.935152 5.620690 59 46 79
-1.626070 -1.647293 6.573432 83 63 74
-1.626070 -1.647293 6.573432 83 63 74
-1.622926 -1.493699 6.548986 67 54 72
-1.621537 -0.687801 6.438918 58 46 62
-1.610795 -0.591224 6.371633 123 106 130
-1.613599 -0.613495 6.415287 58 46 70
-1.609886 -0.595001 6.397027 123 106 130
-1.603585 -0.686285 6.415195 55 45 62
-1.603585 -0.686285 6.415195 55 45 62
-1.532520 0.888838 5.614913 49 37 70
-1.577724 -1.532977 6.521575 75 61 79
-1.577915 -1.602345 6.537554 77 56 73
-1.571890 -0.878322 6.424344 68 56 79
-1.525459 0.497953 5.996171 34 27 65
-1.525459 0.497953 5.996171 34 27 65
-1.545039 -1.631352 6.522780 132 110 129
-1.541279 -0.664918 6.371827 128 111 133
-1.535008 -0.307357 6.309630 125 107 130
-1.532876 -0.686065 6.370222 53 45 63
-1.530983 -0.328836 6.318039 56 46 68
-1.522519 -0.889398 6.394655 62 47 70
-1.479968 -0.337101 6.281480 67 55 70
-1.475566 -1.244630 6.413240 44 34 50
-1.422261 0.813583 5.560074 54 42 81
-1.468438 -0.896955 6.365180 49 38 57
-1.440796 0.513678 5.882056 32 27 67
-1.443725 0.426716 5.943942 32 25 51
-1.400380 0.989145 5.420707 61 54 74
-1.400380 0.989145 5.420707 61 54 74
-1.448196 -1.524196 6.437212 67 57 79
-1.448196 -1.524196 6.437212 67 57 79
-1.286135 1.137483 4.199596 60 47 95
-1.447261 -0.876859 6.339944 78 63 83
-1.447261 -0.876859 6.339944 78 63 83
-1.444957 -1.224722 6.383879 127 105 124
-1.446993 -0.334899 6.264895 71 56 71
-1.424142 0.541291 5.926777 24 23 56
-1.401255 -0.522368 5.861925 21 21 51
-1.434627 -0.886856 6.319715 120 108 133
-1.434002 -1.252952 6.381768 45 35 54
-1.430812 -1.147095 6.359779 78 59 77
-1.427335 -1.197572 6.371245 90 67 82
-1.391820 0.420772 5.905879 33 26 54
-1.391820 0.420772 5.905879 33 26 54
-1.258407 1.043801 4.196541 63 49 83
-1.403976 -1.261823 6.370134 63 48 69
-1.371455 -0.166398 5.843095 24 22 44
-1.365216 0.437966 5.900760 38 29 62
-1.365216 0.437966 5.900760 38 29 62
-1.365216 0.437966 5.900760 38 29 62
-1.371361 -1.590629 6.382129 76 53 68
-1.236806 1.220331 4.135453 94 75 112
-1.236806 1.220331 4.135453 94 75 112
-1.304200 -0.972205 5.655872 33 31 69
-1.319594 -0.413681 5.872203 25 23 49
-1.326998 0.214277 5.907667 32 24 56
-1.326465 0.214516 5.913167 32 24 56
-1.329538 -1.646088 6.376447 91 66 77
-1.327922 -1.542739 6.351469 75 57 70
-1.292452 0.377252 5.781315 51 40 85
-1.292452 0.377252 5.781315 51 40 85
-1.291323 0.353921 5.778022 47 38 84
-1.280692 -0.001691 5.872789 32 29 70
-1.281631 0.125449 5.883064 38 29 56
-1.279405 0.295429 5.845645 50 43 91
-1.275537 -1.421972 6.308875 58 46 65
-1.255917 0.745525 5.527969 66 56 99
-1.255917 0.745525 5.527969 66 56 99
-1.248652 0.865505 5.425333 58 47 93
-1.240136 0.982284 5.332311 60 50 74
-1.240136 0.982284 5.332311 60 50 74
-1.242025 0.800872 5.427812 52 38 73
-1.152895 1.250557 4.013080 84 73 109
-1.242730 0.291413 5.826341 50 40 85
-1.241024 -1.652526 6.321511 95 70 89
-1.226101 0.123322 5.850978 34 27 57
-1.207403 0.793570 5.395809 56 42 74
-1.223504 0.205522 5.853980 38 26 56
-1.216681 -1.653862 6.301513 98 75 93
-1.135997 1.243575 4.024365 51 46 81
-1.208961 0.424452 5.786825 24 21 42
-1.208433 0.512731 5.790838 34 26 55
-1.175267 -0.937309 5.628107 24 22 42
-1.200527 0.343935 5.789574 39 28 59
-1.196443 0.386288 5.785408 28 23 51
-1.109948 1.036100 4.093884 60 47 94
-1.105217 1.240946 4.005870 53 45 87
-1.156633 0.951744 5.266941 58 49 71
-1.095834 1.086841 4.078799 64 51 103
-1.095834 1.086841 4.078799 64 51 103
-1.093860 1.017206 4.088100 54 43 89
-1.089717 1.219722 4.007860 141 116 159
-1.124458 -0.620900 5.587202 45 36 67
-1.129128 -1.552605 6.229550 131 107 129
-1.079345 1.239929 3.986418 48 44 80
-1.107552 -1.680929 6.224573 83 60 72
-1.111077 0.077399 5.642616 37 30 60
-1.106679 0.968727 5.248421 57 49 71
-1.109886 0.360522 5.599738 41 30 65
-1.106669 0.217686 5.614603 39 28 58
-1.090161 -0.559490 5.575386 97 83 129
-1.103846 0.503322 5.572677 35 27 67
-1.082321 -0.643326 5.580670 39 31 69
-1.076176 -1.335230 5.703382 39 30 54
-1.075549 -0.945320 5.552102 21 21 42
-1.090500 0.041195 5.600178 30 25 56
-1.054282 -1.349042 5.684552 39 31 54
-1.062351 -0.525859 5.561699 90 74 126
-1.063741 -1.677616 6.191092 48 33 44
-1.072680 0.895230 5.300970 67 52 91
-1.072680 0.895230 5.300970 67 52 91
-1.060258 -1.692310 6.180483 137 118 122
-1.060258 -1.692310 6.180483 137 118 122
-1.055683 -0.637648 5.535480 98 81 131
-1.070537 0.498581 5.557659 36 26 63
-1.046747 -0.619481 5.541348 42 36 69
-1.055068 0.868196 5.294243 58 43 81
-1.042002 -1.598928 6.174740 76 52 62
-1.038715 -0.671130 5.536850 87 71 118
-1.051355 0.198549 5.584691 49 40 83
-1.039963 -1.670197 6.191454 137 114 125
-1.029464 -0.382491 5.596876 14 14 29
-1.029222 0.037047 5.573111 26 23 53
-1.021839 -0.441856 5.547481 90 79 128
-1.032979 0.853398 5.284661 58 45 79
-1.029218 0.291986 5.550138 36 28 54
-1.019436 -0.421553 5.572241 25 21 55
-1.021826 0.015114 5.572265 93 73 99
-1.021597 0.132384 5.581923 43 34 63
-1.022278 0.418727 5.537897 39 34 66
-1.006045 -0.499044 5.621359 25 23 58
-0.998997 -0.656720 5.574847 16 16 35
-1.008405 0.497866 5.513989 80 69 120
-1.005273 0.863080 5.254218 57 46 82
-0.994911 -0.198481 5.579733 73 63 124
-0.981696 -1.074520 5.552203 37 29 58
-0.981696 -1.074520 5.552203 37 29 58
-0.986569 0.872323 4.063631 92 77 125
-0.981288 -0.955266 5.487731 21 21 42
-0.990218 -0.137357 5.495210 26 23 53
-0.994477 0.202911 5.546209 34 24 59
-0.994477 0.202911 5.546209 34 24 59
-0.988071 0.350986 5.517194 34 28 59
-0.988071 0.350986 5.517194 34 28 59
-0.977049 1.123281 4.054030 107 81 115
-0.966546 -0.630911 5.560941 26 24 51
-0.966546 -0.630911 5.560941 26 24 51
-0.970305 0.515432 5.464909 88 75 126
-0.954152 -0.515095 5.608469 42 32 64
-0.954152 -0.515095 5.608469 42 32 64
-0.950388 -0.328582 5.578251 41 34 65
-0.962703 0.955538 5.138446 56 50 66
-0.938636 -0.218771 5.558477 28 21 54
-0.946734 1.213491 4.035412 114 92 135
-0.922573 -0.464854 5.568110 37 29 59
-0.922573 -0.464854 5.568110 37 29 59
-0.924501 -0.198077 5.573073 24 21 46
-0.920558 -0.082365 5.469945 18 20 44
-0.918256 -0.224385 5.555986 81 67 110
-0.911931 -0.287933 5.546001 41 32 67
-0.899292 -1.199125 5.441644 23 18 39
-0.932411 1.248257 4.010287 68 57 105
-0.930022 1.072906 4.078597 70 54 85
-0.918770 0.769910 5.204140 58 44 77
-0.901709 -0.251032 5.556728 23 24 54
-0.901709 -0.251032 5.556728 23 24 54
-0.889513 -0.965706 5.425618 25 22 44
-0.893945 -0.275958 5.540657 72 62 111
-0.893945 -0.275958 5.540657 72 62 111
-0.903212 0.368577 5.237085 189 181 187
-0.881284 -0.810360 5.492048 91 76 129
-0.897241 0.394400 5.237185 13 16 22
-0.882544 -0.493412 5.553969 40 31 62
-0.882544 -0.493412 5.553969 40 31 62
-0.882544 -0.493412 5.553969 40 31 62
-0.874828 -0.301083 5.530467 22 22 51
-0.869848 -0.095530 5.516584 16 17 39
-0.869892 -0.000299 5.486646 91 100 129
-0.862632 -0.472862 5.541032 41 34 65
-0.856137 -0.318991 5.518960 72 62 113
-0.866585 0.319586 5.272026 190 182 184
-0.870333 0.741453 5.180389 193 142 125
-0.864792 0.415881 5.220494 165 181 185
-0.864792 0.415881 5.220494 165 181 185
-0.862577 0.340771 5.252720 119 117 124
-0.853663 -0.010845 5.479931 110 121 141
-0.842976 -0.828800 5.465241 50 39 76
-0.824559 -1.601369 6.028168 97 74 87
-0.839408 -0.117932 5.478286 86 98 120
-0.846708 0.349119 5.251557 91 91 100
-0.846708 0.349119 5.251557 91 91 100
-0.846708 0.349119 5.251557 91 91 100
-0.849323 0.766693 5.172364 55 41 78
-0.842243 0.371817 5.230603 181 194 198
-0.865525 1.130651 4.085505 78 59 88
-0.864263 1.068496 4.093277 70 53 102
-0.821394 -0.118058 5.462293 116 131 146
-0.861703 1.037175 4.097364 87 66 119
-0.861703 1.037175 4.097364 87 66 119
-0.829925 0.384674 5.227129 112 112 124
-0.826953 0.399183 5.219209 136 152 161
-0.812889 -0.127484 5.443256 30 26 59
-0.821686 0.342808 5.250740 173 191 199
-0.795698 -0.975616 5.359683 24 23 46
-0.772914 -1.594951 5.981046 71 55 80
-0.847678 0.953273 4.115074 73 57 100
-0.847678 0.953273 4.115074 73 57 100
-0.848598 1.155631 4.083424 65 47 82
-0.811653 0.436618 5.218899 22 26 43
-0.792529 -0.486143 5.493134 29 30 65
-0.803040 0.181222 5.341573 135 160 174
-0.844587 1.089532 4.092769 77 59 111
-0.806592 0.379439 5.243728 204 220 223
-0.805608 0.769732 5.124803 63 49 78
-0.787581 0.170941 5.341532 69 77 95
-0.742991 -1.595340 5.956141 65 47 65
-0.776524 0.185554 5.340781 134 156 170
-0.779475 0.461282 5.217694 37 39 56
-0.770000 0.258654 5.396832 72 95 117
-0.784718 0.875684 5.107513 70 55 99
-0.757429 -0.372084 5.456262 30 25 57
-0.780764 0.763078 5.120858 116 95 141
-0.771736 0.426828 5.236404 70 62 76
-0.722235 -1.601690 5.951056 61 41 60
-0.761747 0.152317 5.375846 129 139 153
-0.812219 1.022370 4.111452 83 61 112
-0.766125 0.368735 5.260134 101 110 133
-0.756342 0.184125 5.346231 135 160 174
-0.805872 1.155912 4.093002 74 54 99
-0.805596 1.156376 4.093886 74 54 99
-0.753078 0.348830 5.278598 148 161 173
-0.762963 0.846256 5.100549 57 45 86
-0.743822 0.275035 5.405029 125 154 172
-0.738201 -0.083443 5.439909 16 19 40
-0.744016 0.290082 5.397719 106 132 149
-0.733517 -0.343899 5.443755 18 19 47
-0.733517 -0.343899 5.443755 18 19 47
-0.718094 -1.401559 5.495467 58 46 104
-0.735971 0.298344 5.430241 126 151 166
-0.729522 -0.148221 5.452972 17 17 33
-0.793703 1.039494 4.110185 70 54 107
-0.743025 0.455365 5.226843 135 117 129
-0.792448 1.071718 4.107665 81 65 117
-0.795440 1.251613 4.034588 73 62 109
-0.734837 0.414298 5.269993 137 147 159
-0.788939 1.220134 4.069686 110 89 135
-0.738564 0.741165 5.098592 57 44 71
-0.718791 0.115251 5.379836 169 195 207
-0.706403 -0.829757 5.370328 96 80 129
-0.714987 0.242785 5.409618 64 81 100
-0.694340 -0.510251 5.428687 35 28 61
-0.681138 -1.267268 5.492319 45 33 83
-0.659925 -1.601720 5.812161 24 20 28
-0.691011 -0.315359 5.404927 21 23 48
-0.689074 -0.682911 5.313979 25 22 40
-0.705692 0.444367 5.227429 76 80 102
-0.698160 0.453429 5.216894 134 134 146
-0.670989 -0.831437 5.349992 90 75 127
-0.701078 0.738737 5.068876 53 41 73
-0.658836 -0.312373 5.385684 32 26 56
-0.659127 -0.273445 5.372088 21 20 49
-0.674705 0.457933 5.203403 30 23 42
-0.617610 -1.647592 5.795304 41 31 32
-0.656501 -0.635432 5.280571 80 67 101
-0.684858 0.871067 5.045474 65 52 85
-0.614589 -1.617464 5.816073 20 20 29
-0.669047 0.426986 5.216280 93 96 116
-0.669047 0.426986 5.216280 93 96 116
-0.609200 -1.624531 5.838595 20 20 29
-0.649135 -0.245716 5.364237 65 59 100
-0.730864 1.079940 4.121489 82 61 108
-0.730864 1.079940 4.121489 82 61 108
-0.727818 1.133426 4.116376 76 57 87
-0.634705 -1.104957 5.290479 26 22 47
-0.634705 -1.104957 5.290479 26 22 47
-0.666428 0.823309 5.044939 58 45 77
-0.663650 0.760811 5.047693 49 44 55
-0.627983 -0.214454 5.352026 12 12 33
-0.626717 -0.677006 5.278920 31 23 54
-0.715416 1.117783 4.121751 132 109 154
-0.715416 1.117783 4.121751 132 109 154
-0.616702 -0.565481 5.281757 87 72 125
-0.633475 0.614670 5.165380 123 106 156
-0.631317 0.638325 5.149783 121 103 157
-0.620256 0.481655 5.249351 35 33 65
-0.607245 -0.200500 5.324754 78 69 121
-0.615452 0.511814 5.243824 36 34 77
-0.625946 0.751208 5.016690 42 34 55
-0.572784 -1.356620 5.359085 107 91 147
-0.588729 -0.649715 5.236351 81 69 116
-0.605957 0.693669 5.098151 73 63 116
-0.585396 0.171640 5.265991 45 36 74
-0.578409 -0.677119 5.225366 91 78 126
-0.609107 0.762956 5.005071 54 42 67
-0.580343 0.454387 5.231713 33 22 65
-0.580343 0.454387 5.231713 33 22 65
-0.662000 1.035086 4.134758 69 51 90
-0.662000 1.035086 4.134758 69 51 90
-0.543349 -1.213864 5.406741 35 25 74
-0.541678 -1.228148 5.394752 110 90 145
-0.541678 -1.228148 5.394752 110 90 145
-0.590595 0.762444 4.998650 110 89 135
-0.557649 -0.687796 5.212347 40 33 70
-0.588820 0.779639 4.996631 56 43 71
-0.547790 -0.845359 5.281761 100 82 133
-0.551702 -0.595176 5.246484 37 34 76
-0.551702 -0.595176 5.246484 37 34 76
-0.564992 0.459171 5.220122 83 74 129
-0.494767 -1.622834 5.799794 58 43 70
-0.492554 -1.635546 5.787781 108 91 119
-0.518720 -1.220986 5.385078 39 31 65
-0.571639 0.760253 4.986892 54 39 75
-0.546264 0.314634 5.236817 51 42 79
-0.540759 -0.006051 5.243091 98 75 108
-0.546014 0.534914 5.197427 37 28 62
-0.528846 -0.577602 5.216774 85 71 125
-0.557047 0.745583 4.981581 50 38 68
-0.520840 -0.557914 5.210105 35 27 67
-0.516451 -0.703226 5.192906 41 29 63
-0.516848 -0.677694 5.190309 55 40 82
-0.527250 0.444692 5.201409 50 44 96
-0.509081 -0.012976 5.225023 32 25 62
-0.503644 0.022221 5.233035 36 32 61
-0.497818 -1.039980 5.127671 71 64 110
-0.501553 0.313791 5.201091 59 47 78
-0.503912 0.532819 5.168570 35 29 63
-0.501208 0.448451 5.180816 31 23 62
-0.481192 -0.242600 5.192849 74 66 123
-0.459428 -1.240476 5.300098 111 100 149
-0.592311 1.260992 4.079453 66 56 93
-0.462377 -0.647170 5.255108 80 68 114
-0.445121 -1.229654 5.313655 33 30 79
-0.502194 0.823802 4.927867 58 43 80
-0.465465 0.023128 5.204850 41 33 64
-0.464490 -0.186515 5.146327 26 26 56
-0.464123 0.307420 5.170379 39 31 65
-0.489339 0.738731 4.937088 109 93 138
-0.476790 0.723704 4.927666 50 42 60
-0.358248 -1.535255 5.704362 71 52 69
-0.438749 0.602739 5.070750 121 107 158
-0.390054 -1.200576 5.303609 105 91 148
-0.435599 0.626900 5.050694 117 100 153
-0.440953 0.702036 4.992379 130 111 158
-0.377962 -0.122387 5.266514 14 16 41
-0.414321 0.723902 4.892581 48 41 56
-0.306173 -1.398467 5.644806 76 51 79
-0.302717 -1.428775 5.645576 82 56 75
-0.476546 1.104692 4.327048 75 55 97
-0.294885 -1.392193 5.637740 131 109 130
-0.396426 0.731688 4.871800 99 84 131
-0.388159 0.816985 4.857995 56 39 76
-0.388159 0.816985 4.857995 56 39 76
-0.324968 -0.213826 5.284351 37 28 56
-0.377693 0.807867 4.851136 65 58 87
-0.323973 0.215059 5.233150 36 28 65
-0.375989 0.801587 4.854750 49 39 75
-0.321592 0.348060 5.213593 34 28 68
-0.309002 -0.803708 5.202513 90 75 126
-0.300967 -0.257616 5.284774 47 44 83
-0.311525 0.340948 5.191072 57 46 76
-0.237191 -1.554851 5.623062 91 70 92
-0.308005 0.328589 5.200169 34 25 69
-0.237573 -1.385099 5.596221 70 57 89
-0.237573 -1.385099 5.596221 70 57 89
-0.309897 0.490852 5.176094 42 32 63
-0.293601 0.346508 5.189090 44 34 65
-0.293601 0.346508 5.189090 44 34 65
-0.335548 0.730111 4.832747 48 39 67
-0.267745 -0.215575 5.237176 32 27 58
-0.245477 0.133983 5.188978 41 33 72
-0.171793 -1.395212 5.559131 83 65 99
-0.244021 0.497237 5.141293 44 35 70
-0.165553 -1.381716 5.551439 128 110 129
-0.230596 0.113099 5.182132 38 29 61
-0.211021 -1.040045 5.209586 82 70 107
-0.221987 0.429218 5.129176 37 31 66
-0.229194 0.291364 5.066283 97 86 135
-0.214069 0.112541 5.154751 43 36 59
-0.223931 0.283255 5.059767 56 45 92
-0.223931 0.283255 5.059767 56 45 92
-0.204237 0.024866 5.173609 49 38 66
-0.306099 1.186983 4.549958 75 55 91
-0.306099 1.186983 4.549958 75 55 91
-0.262652 0.725353 4.791049 59 50 77
-0.134047 -1.281696 5.509297 88 73 104
-0.213644 0.289052 5.054049 97 86 134
-0.204327 0.447408 5.116388 38 30 63
-0.209053 0.301828 5.059489 38 34 82
-0.181948 0.092006 5.152542 40 37 84
-0.185114 0.344096 5.128592 30 31 81
-0.179541 -0.495980 5.092175 83 70 119
-0.170644 -0.294038 5.092523 25 23 50
-0.150439 0.020774 5.143561 36 30 61
-0.220245 0.789356 4.746137 60 46 89
-0.081769 -1.224053 5.470471 93 73 102
-0.150832 0.216030 5.098445 104 88 142
-0.210032 0.805454 4.739010 63 49 94
-0.146986 0.442190 5.089174 35 28 73
-0.132645 -0.004431 5.136577 43 35 69
-0.136035 0.220878 5.089704 55 43 88
-0.136035 0.220878 5.089704 55 43 88
-0.132267 0.334554 5.077767 24 21 53
-0.193448 0.830674 4.724784 65 53 93
-0.193448 0.830674 4.724784 65 53 93
-0.062872 -1.052889 5.399971 36 31 68
-0.117581 0.256397 5.074888 52 44 88
-0.117524 0.297522 5.074470 30 23 54
-0.026573 -1.502941 5.482778 90 68 99
-0.176176 0.804244 4.716658 45 40 70
-0.201235 1.307899 4.588945 61 54 76
-0.105155 0.102295 5.081894 42 33 61
-0.169132 0.673851 4.727698 115 95 141
-0.205007 1.370855 4.526619 52 47 66
-0.177753 0.904228 4.624903 81 70 121
-0.181983 1.303584 4.584476 125 104 147
-0.175186 1.292240 4.607906 69 57 91
-0.175186 1.292240 4.607906 69 57 91
-0.151511 0.697321 4.710908 40 36 65
-0.016516 -0.936901 5.377098 133 110 127
-0.149839 0.786646 4.698394 39 35 65
-0.075757 0.120122 5.076693 37 28 56
-0.140837 0.666627 4.716337 135 115 150
-0.005597 -0.952358 5.379953 70 53 78
0.010748 -1.409214 5.436848 80 59 83
-0.158158 1.322957 4.561080 46 40 74
0.016857 -1.064273 5.375378 86 70 93
-0.154625 1.395832 4.545569 40 39 46
-0.124904 0.799422 4.677072 44 40 56
-0.043410 0.305137 5.035217 34 27 56
-0.102279 0.693669 4.679400 49 37 70
0.043771 -1.068254 5.363927 82 66 93
0.053946 -1.318824 5.394272 81 58 77
0.053946 -1.318824 5.394272 81 58 77
0.056037 -1.402162 5.398581 99 78 88
-0.029810 0.492922 4.999540 40 31 64
-0.029810 0.492922 4.999540 40 31 64
0.065847 -1.402960 5.402380 78 55 66
-0.088671 0.702508 4.666922 101 88 135
-0.089493 0.794403 4.662566 53 44 87
-0.096131 1.123482 4.602903 83 69 120
-0.096085 1.143745 4.602760 29 26 40
0.069891 -1.068349 5.343245 134 115 133
-0.078226 0.786479 4.655679 58 51 78
0.073699 -1.050754 5.343869 81 64 83
-0.096865 1.278034 4.561041 130 105 152
-0.083753 0.922188 4.580016 31 32 60
0.085509 -0.988274 5.316092 140 124 150
0.091097 -1.066251 5.337270 85 65 80
0.089844 -0.966937 5.310037 91 69 101
0.099866 -1.048399 5.304477 116 99 112
0.107709 -1.041404 5.324335 66 48 67
0.115163 -1.064533 5.320420 77 58 71
0.118703 -1.179677 5.326209 85 66 97
0.134188 -1.572591 5.377951 84 63 90
0.126886 -1.338282 5.339189 76 70 103
0.126886 -1.338282 5.339189 76 70 103
-0.033492 0.704844 4.631543 37 32 49
0.142508 -1.426340 5.348351 93 75 101
0.118751 -0.686620 5.256969 86 65 85
0.138916 -1.234262 5.321851 82 61 76
-0.037368 1.139494 4.572419 52 42 89
0.049656 0.466701 4.954688 39 30 70
0.140304 -1.155285 5.307795 94 71 87
-0.032143 1.014142 4.570810 39 34 63
-0.017975 0.718559 4.619312 45 37 71
0.144959 -1.096671 5.302553 76 60 77
-0.033934 1.219950 4.548339 44 37 65
-0.033934 1.219950 4.548339 44 37 65
-0.025832 1.082972 4.562838 46 36 80
0.151702 -1.139557 5.300228 83 64 85
0.146111 -0.694780 5.248568 89 73 97
0.171477 -1.433913 5.330669 94 76 104
0.178240 -1.552039 5.345260 89 63 81
0.151644 -0.713933 5.244730 139 120 144
0.024075 0.649706 4.704468 59 56 85
0.024075 0.649706 4.704468 59 56 85
0.168114 -0.831305 5.250163 80 67 97
0.160473 -0.619499 5.215480 94 81 114
0.160473 -0.619499 5.215480 94 81 114
0.197483 -1.569684 5.342170 150 127 140
0.186007 -1.260622 5.301814 102 75 95
0.186007 -1.260622 5.301814 102 75 95
0.007293 1.012236 4.555222 44 35 73
0.053726 0.588955 4.743477 118 102 155
0.001653 1.215885 4.527824 51 39 88
0.021119 0.715570 4.598096 46 38 67
0.012315 0.836904 4.561971 108 89 142
0.190922 -0.972824 5.253155 144 123 144
0.108081 0.359991 4.923704 31 24 55
0.170586 -0.338818 5.167216 84 70 100
0.168445 -0.172698 5.158289 63 48 74
0.189316 -0.707438 5.216081 75 64 96
0.039560 0.701978 4.596388 39 32 57
0.203529 -0.998695 5.250601 64 55 81
0.203219 -0.887661 5.235960 68 52 76
0.196806 -0.725439 5.209172 130 115 139
0.223800 -1.418315 5.302931 150 126 145
0.225819 -1.458866 5.303018 68 58 82
0.218275 -1.246300 5.271498 135 114 132
0.184718 -0.173169 5.140565 71 53 74
0.184718 -0.173169 5.140565 71 53 74
0.216059 -0.981980 5.244213 136 117 136
0.114954 0.442311 4.789218 120 101 148
0.035162 1.279195 4.473120 104 82 120
0.229152 -0.999784 5.225617 82 72 94
0.114233 0.517218 4.781451 110 93 141
0.251723 -1.431098 5.292424 61 48 62
0.227424 -0.857118 5.205447 79 58 75
0.110128 0.065846 4.719495 79 69 121
0.251987 -1.267402 5.260773 75 59 77
0.251987 -1.267402 5.260773 75 59 77
0.228090 -0.662703 5.174245 146 123 137
0.240213 -0.891536 5.207458 86 66 89
0.229958 -0.507731 5.170673 83 64 89
0.260860 -1.404992 5.265256 131 111 134
0.146564 0.146805 4.834384 23 22 36
0.132009 0.453100 4.780703 55 41 73
0.234043 -0.551604 5.169324 96 76 100
0.255516 -1.011551 5.214887 64 56 82
0.255516 -1.011551 5.214887 64 56 82
0.249319 -0.819905 5.187214 85 70 93
0.269616 -1.270063 5.243484 78 64 89
0.060139 1.391690 4.412628 49 44 58
0.105160 0.695100 4.543037 102 85 133
0.106388 0.677512 4.546237 47 35 64
0.292156 -1.283516 5.228726 83 72 103
0.106278 0.810152 4.529421 61 51 92
0.106278 0.810152 4.529421 61 51 92
0.175843 0.225144 4.783842 23 22 50
0.298837 -1.265218 5.232798 141 121 139
0.167024 0.449346 4.748709 46 37 65
0.278864 -0.697529 5.159358 76 61 89
0.278864 -0.697529 5.159358 76 61 89
0.309086 -1.527988 5.251569 132 109 124
0.313088 -1.493326 5.247295 74 52 69
0.302918 -1.202150 5.206288 95 77 104
0.302918 -1.202150 5.206288 95 77 104
0.275724 -0.340986 5.102191 77 63 91
0.107509 0.908441 4.452979 27 27 42
0.179686 0.493889 4.726707 36 34 68
0.125197 0.779265 4.517790 47 39 74
0.308764 -0.827070 5.153305 78 65 85
0.125939 0.958113 4.470284 22 23 39
0.125939 0.958113 4.470284 22 23 39
0.337655 -1.445399 5.221768 84 71 103
0.143078 0.762955 4.514184 43 37 65
0.125108 1.166958 4.439095 41 34 55
0.312663 -0.502004 5.112065 126 108 127
0.314720 -0.490160 5.105002 85 65 88
0.352855 -1.532619 5.220910 89 69 96
0.338438 -0.981294 5.160059 136 117 140
0.158307 0.688673 4.506640 50 39 69
0.336562 -0.838251 5.140957 83 69 91
0.321572 -0.488294 5.090077 86 67 85
0.321572 -0.488294 5.090077 86 67 85
0.321572 -0.488294 5.090077 86 67 85
0.322578 -0.183115 5.047329 139 120 145
0.341902 -0.486748 5.083008 140 120 139
0.377206 -1.008748 5.134335 79 64 90
0.377206 -1.008748 5.134335 79 64 90
0.396268 -1.438194 5.184458 142 118 133
0.374281 -0.845483 5.115801 82 72 93
0.374281 -0.845483 5.115801 82 72 93
0.406420 -1.452664 5.183705 79 58 92
0.416377 -1.444738 5.171579 127 104 127
0.421198 -1.457362 5.174417 80 63 90
0.406162 -1.009787 5.116657 70 55 79
0.388782 -0.521157 5.060383 81 65 78
0.389745 -0.505692 5.054969 144 121 131
0.413235 -0.850552 5.082444 84 69 95
0.428358 -1.018319 5.101007 73 59 81
0.400516 -0.207962 5.010297 77 62 90
0.451651 -1.461840 5.153316 88 70 97
0.453477 -1.432094 5.148425 76 54 76
0.453955 -1.447682 5.145202 138 116 133
0.451695 -1.338737 5.132628 135 117 140
0.442395 -0.876353 5.066048 85 70 94
0.430723 -0.198354 5.002393 142 119 138
0.436263 -0.358653 5.014230 54 48 69
0.474902 -1.309955 5.124649 131 111 127
0.478381 -1.335555 5.115793 78 66 87
0.441061 -0.197223 4.977912 150 129 147
0.448601 -0.345708 4.998309 123 103 123
0.480494 -1.113010 5.084390 69 57 80
0.480494 -1.113010 5.084390 69 57 80
0.478446 -0.533655 5.008569 134 112 123
0.516713 -1.469057 5.111780 73 61 85
0.460471 -0.043973 4.943862 64 50 74
0.444025 0.467374 4.890486 127 108 119
0.440008 0.609139 4.873545 144 118 128
0.458029 0.333286 4.903868 58 52 79
0.536433 -1.470166 5.098300 96 78 98
0.536433 -1.470166 5.098300 96 78 98
0.529210 -1.116273 5.056740 78 64 90
0.529158 -1.030094 5.042772 77 63 87
0.549555 -1.477975 5.093390 100 76 88
0.561059 -1.505139 5.083374 99 74 88
0.546370 -1.036247 5.025547 67 58 78
0.494452 0.328281 4.878511 69 58 86
0.559966 -1.164403 5.045881 76 57 79
0.482080 0.769622 4.822509 144 121 124
0.542960 -0.719490 4.990152 133 116 134
0.564162 -1.200487 5.042746 79 56 76
0.490601 0.572158 4.829980 64 51 74
0.521641 -0.061562 4.906454 122 105 137
0.528130 -0.197903 4.918654 133 107 129
0.574588 -1.287352 5.038641 135 115 123
0.562753 -0.733754 4.998654 47 38 55
0.518957 0.146052 4.874492 70 60 80
0.588202 -1.482035 5.061382 119 101 116
0.522857 0.175313 4.879809 137 116 132
0.566519 -0.867318 4.992005 71 61 83
0.500437 0.755107 4.808661 73 56 74
0.550491 -0.528247 4.943017 133 116 129
0.567482 -0.765043 4.982901 66 56 69
0.584775 -1.132102 5.023619 66 53 73
0.573120 -0.746620 4.979811 75 66 73
0.553129 -0.211221 4.912923 49 38 54
0.543182 -0.024634 4.883520 145 125 144
0.540472 0.118282 4.869183 127 105 129
0.579721 -0.784561 4.972623 127 110 136
0.503147 1.214905 4.754482 127 101 115
0.614762 -1.485358 5.046965 83 62 84
0.589616 -0.870867 4.976982 77 64 89
0.598514 -1.042068 4.987879 70 57 75
0.564535 -0.058770 4.895694 56 46 56
0.590558 -0.760699 4.960597 113 100 122
0.568760 -0.200961 4.902005 125 102 119
0.570202 -0.200962 4.904500 125 102 119
0.517431 1.135144 4.752470 52 38 57
0.535108 0.661160 4.794867 131 111 121
0.518211 1.192648 4.747898 40 32 48
0.588780 -0.534890 4.937860 135 117 124
0.534400 0.732515 4.780478 119 104 134
0.488985 1.350568 4.640400 67 52 56
0.553371 0.455553 4.823158 130 108 125
0.578633 -0.044591 4.880498 69 53 76
0.600493 -0.536570 4.929090 83 57 75
0.567938 0.175917 4.840499 139 114 133
0.561598 0.443573 4.820555 59 46 67
0.623651 -1.025093 4.978983 136 112 125
0.610963 -0.730463 4.942418 85 66 87
0.602611 -0.386750 4.921544 129 113 116
0.553558 0.649845 4.783751 78 61 83
0.540262 1.034061 4.742170 131 109 113
0.604522 -0.403287 4.908811 60 49 57
0.604522 -0.403287 4.908811 60 49 57
0.630707 -1.045009 4.974156 62 50 68
0.617280 -0.757576 4.935053 74 62 84
0.650998 -1.483919 5.023656 78 57 78
0.643155 -1.300835 5.002654 85 66 88
0.585505 0.150992 4.843715 61 48 63
0.559171 0.793877 4.756669 47 33 50
0.559171 0.793877 4.756669 47 33 50
0.559171 0.793877 4.756669 47 33 50
0.547432 1.166597 4.721942 99 79 94
0.551467 1.033768 4.731759 130 109 116
0.641698 -1.019061 4.970372 93 70 82
0.570144 0.649279 4.779988 84 66 87
0.634750 -0.880964 4.949393 69 61 84
0.565434 0.807625 4.755878 122 102 110
0.584119 0.435409 4.797667 73 59 78
0.655068 -1.132214 4.969595 81 63 85
0.599752 0.284612 4.811267 78 62 81
0.599752 0.284612 4.811267 78 62 81
0.669030 -1.305640 4.991488 84 66 89
0.654100 -0.939061 4.952684 66 50 68
0.585171 0.649747 4.767472 142 119 123
0.585171 0.649747 4.767472 142 119 123
0.646559 -0.762922 4.927692 67 55 75
0.583699 0.767213 4.757430 68 51 65
0.573525 1.062580 4.722354 134 110 119
0.573525 1.062580 4.722354 134 110 119
0.662658 -1.055525 4.955218 60 49 68
0.621292 -0.055735 4.847780 55 45 71
0.639248 -0.392631 4.893438 59 46 63
0.660898 -0.881252 4.929813 68 56 78
0.587709 0.884218 4.736986 143 122 125
0.587709 0.884218 4.736986 143 122 125
0.683400 -1.341841 4.983921 82 69 82
0.618515 0.159533 4.815671 123 102 120
0.580291 1.082428 4.713136 136 113 118
0.583320 1.062504 4.719131 90 64 79
0.595791 0.783834 4.748636 131 108 113
0.654342 -0.557541 4.899660 81 66 79
0.589932 1.044629 4.719969 129 105 107
0.600846 0.750729 4.747045 126 104 121
0.603317 0.764166 4.743777 63 49 66
0.603317 0.764166 4.743777 63 49 66
0.618276 0.431646 4.779372 75 61 78
0.640792 -0.049057 4.836371 76 64 78
0.677786 -0.940312 4.928905 64 52 71
0.600598 0.894086 4.727831 75 51 67
0.702718 -1.470747 4.990900 138 113 126
0.665299 -0.607887 4.894596 61 47 65
0.593307 1.119860 4.702895 75 59 80
0.678484 -0.909769 4.920308 77 64 84
0.677750 -0.924438 4.917074 133 112 126
0.632975 0.153838 4.796615 130 110 128
0.607375 0.876448 4.724890 68 50 71
0.677392 -0.747470 4.904884 81 59 79
0.677392 -0.747470 4.904884 81 59 79
0.624378 0.595253 4.756574 141 118 129
0.598428 1.237243 4.681720 141 107 117
0.649558 -0.024633 4.813330 142 121 145
0.662813 -0.230523 4.845278 58 49 71
0.615745 0.807400 4.719139 142 122 140
0.690482 -0.873292 4.910944 139 115 134
0.715906 -1.467053 4.974266 88 63 77
0.635393 0.434267 4.769472 64 50 71
0.612128 1.031349 4.707030 140 117 119
0.650890 0.098411 4.791072 133 113 134
0.629636 0.612830 4.735411 127 112 134
0.652334 0.136861 4.790509 89 69 93
0.671562 -0.055211 4.829432 56 46 58
0.698683 -0.768363 4.895195 68 54 81
0.622382 1.014127 4.693012 55 49 71
0.667105 0.029276 4.797795 129 113 134
0.684548 -0.209435 4.840858 138 114 130
0.696546 -0.545889 4.861082 132 110 130
0.623342 1.245025 4.668571 136 103 108
0.725829 -1.190930 4.926906 81 60 89
0.649258 0.589933 4.732378 81 60 79
0.715871 -0.909724 4.899590 128 109 127
0.628973 1.227759 4.678091 46 33 41
0.652344 0.554848 4.730692 120 105 128
0.653745 0.580415 4.733534 126 107 124
0.653745 0.580415 4.733534 126 107 124
0.660780 0.422092 4.751013 77 57 80
0.629469 1.211288 4.669861 108 90 99
0.629469 1.211288 4.669861 108 90 99
0.677563 0.084242 4.792675 64 46 62
0.723145 -0.881374 4.900154 95 77 96
0.733301 -1.207166 4.921535 127 107 129
0.733301 -1.207166 4.921535 127 107 129
0.647627 1.027230 4.686019 61 45 62
0.697098 -0.069513 4.809942 42 36 53
0.697098 -0.069513 4.809942 42 36 53
0.652115 0.870679 4.685621 121 109 133
0.659995 0.741635 4.702402 71 50 69
0.675910 0.500077 4.728036 75 65 93
0.648905 1.117001 4.652850 76 57 77
0.725800 -0.558994 4.843364 57 40 60
0.671881 0.722998 4.707420 147 127 132
0.671881 0.722998 4.707420 147 127 132
0.751497 -1.104026 4.898703 83 68 81
0.751497 -1.104026 4.898703 83 68 81
0.749450 -0.946316 4.886390 51 41 55
0.700768 0.133884 4.759028 94 74 90
0.754719 -0.890293 4.878143 64 47 72
0.729489 -0.382709 4.814282 125 105 120
0.673114 0.878145 4.671273 65 54 72
0.685305 0.749211 4.700959 68 48 57
0.685305 0.749211 4.700959 68 48 57
0.742145 -0.577579 4.837966 73 65 94
0.673839 1.017672 4.666157 74 61 80
0.760053 -0.990498 4.876563 144 119 134
0.668906 1.209171 4.647541 137 114 118
0.668906 1.209171 4.647541 137 114 118
0.774899 -1.256266 4.909199 83 61 81
0.760118 -0.930063 4.868597 120 101 123
0.692868 0.721705 4.700256 52 50 73
0.692868 0.721705 4.700256 52 50 73
0.678481 1.028899 4.663799 161 137 138
0.669384 1.134717 4.639765 118 97 121
0.669384 1.134717 4.639765 118 97 121
0.735267 -0.253805 4.803305 57 47 59
0.735267 -0.253805 4.803305 57 47 59
0.757088 -0.774044 4.856623 72 59 79
0.678787 1.037966 4.659131 135 104 120
0.694212 0.609359 4.696585 126 110 129
0.702180 0.431238 4.715017 82 59 76
0.701571 0.509974 4.698325 131 112 127
0.773240 -0.956893 4.872770 68 59 80
0.778307 -1.145924 4.883031 84 67 77
0.744880 -0.297258 4.796151 67 50 70
0.718876 0.320826 4.730525 139 125 129
0.759360 -0.559996 4.821860 87 64 76
0.752975 -0.396080 4.806474 52 47 69
0.752975 -0.396080 4.806474 52 47 69
0.693304 1.012785 4.657353 83 64 81
0.729254 0.127973 4.745903 82 69 89
0.718758 0.388781 4.717809 70 54 72
0.763241 -0.580723 4.822878 79 65 93
0.728749 0.311766 4.722027 73 58 78
0.722286 0.487476 4.693821 76 68 92
0.722286 0.487476 4.693821 76 68 92
0.693616 1.168836 4.621047 116 94 118
0.709576 0.990991 4.648783 146 124 129
0.711394 0.918768 4.652925 145 121 125
0.737287 0.422751 4.703879 81 64 85
0.700247 1.265202 4.600757 74 65 74
0.808713 -1.144717 4.863887 76 58 78
0.808713 -1.144717 4.863887 76 58 78
0.704112 1.242108 4.607420 70 56 76
0.786688 -0.580191 4.805724 67 53 77
0.786688 -0.580191 4.805724 67 53 77
0.710016 1.174248 4.617596 118 97 118
0.806957 -1.019860 4.849262 79 60 84
0.714655 1.199619 4.625727 50 40 51
0.728379 0.936978 4.637705 81 68 87
0.764087 0.301178 4.702899 76 57 76
0.815123 -0.767759 4.816357 74 53 61
0.820124 -0.759365 4.827815 136 118 133
0.766031 0.313411 4.695503 138 122 139
0.741295 0.908390 4.629745 154 128 141
0.823417 -0.877261 4.825452 145 121 135
0.834728 -0.959430 4.831306 51 44 63
0.776272 0.300994 4.690256 78 59 78
0.735299 1.207061 4.589203 124 108 134
0.832848 -0.890715 4.819349 60 43 58
0.748438 0.933585 4.614846 75 61 86
0.820730 -0.583848 4.785705 60 51 65
0.850191 -1.133882 4.832969 125 105 128
0.842295 -0.907509 4.808790 116 102 117
0.756624 0.979069 4.605781 135 117 130
0.756624 0.979069 4.605781 135 117 130
0.840008 -0.887959 4.801923 60 47 61
0.853095 -1.071596 4.826817 64 54 74
0.856442 -1.150216 4.833130 55 42 50
0.848919 -0.933778 4.804062 132 110 127
0.772276 0.852066 4.621989 88 80 102
0.766206 1.035636 4.597716 151 122 131
0.857937 -0.991615 4.809496 79 63 89
0.857937 -0.991615 4.809496 79 63 89
0.843716 -0.579418 4.764298 116 103 122
0.821508 -0.068719 4.711922 48 43 64
0.806741 0.298716 4.675128 86 67 88
0.774921 1.021510 4.598262 82 69 90
0.836223 -0.414167 4.741013 82 69 71
0.786565 0.595959 4.618661 175 64 26
0.780701 0.905570 4.605252 149 125 140
0.835326 -0.217190 4.728266 92 71 87
0.836614 -0.242106 4.724448 55 45 61
0.775596 1.151798 4.574946 129 109 127
0.788545 0.886341 4.603948 67 52 70
0.843264 -0.225268 4.726171 137 120 132
0.787160 1.022124 4.589783 85 70 84
0.807292 0.498027 4.633232 81 61 82
0.879478 -0.958200 4.797029 72 55 73
0.879478 -0.958200 4.797029 72 55 73
0.844207 -0.206053 4.714044 75 57 70
0.782716 1.184528 4.567822 55 41 59
0.782716 1.184528 4.567822 55 41 59
0.784496 1.208421 4.567486 134 114 136
0.797981 0.693869 4.597945 207 114 76
0.802017 0.621894 4.606039 208 110 69
0.796645 0.899593 4.590671 155 130 141
0.896373 -1.156306 4.817461 65 48 65
0.896373 -1.156306 4.817461 65 48 65
0.807443 0.709142 4.608485 79 41 47
0.910424 -1.418144 4.839491 85 65 81
0.910424 -1.418144 4.839491 85 65 81
0.821958 0.569706 4.629641 65 46 58
0.900786 -1.077201 4.805224 63 51 75
0.844104 0.146745 4.668177 72 54 76
0.848028 0.122573 4.669205 76 64 91
0.807101 1.034374 4.569705 156 126 133
0.821211 0.585044 4.601494 127 107 128
0.851802 0.136011 4.672970 130 111 128
0.867371 -0.225580 4.703541 138 119 136
0.865682 -0.054493 4.683455 134 116 133
0.809139 1.206225 4.547662 134 108 126
0.910469 -0.949097 4.775545 67 54 66
0.853062 0.294405 4.641231 90 70 95
0.879825 -0.257655 4.700554 71 64 92
0.839206 0.603399 4.606906 89 73 97
0.922874 -1.059056 4.786109 140 114 126
0.929260 -1.207869 4.797655 128 107 130
0.933295 -1.296493 4.806131 87 68 90
0.911565 -0.771120 4.745966 69 57 69
0.933698 -1.157555 4.789444 67 48 63
0.826682 1.203957 4.546020 126 106 117
0.930769 -1.044062 4.779805 127 102 114
0.924168 -0.965035 4.762169 128 109 119
0.826111 1.186401 4.535845 59 49 64
0.946037 -1.366319 4.804160 123 105 122
0.938051 -1.144510 4.786005 132 108 127
0.951966 -1.351537 4.815174 60 39 55
0.951966 -1.351537 4.815174 60 39 55
0.932515 -0.956988 4.766783 74 50 63
0.859517 0.593263 4.596595 119 106 130
0.952959 -1.326406 4.801353 131 109 130
0.899424 -0.179568 4.673746 64 56 77
0.887713 0.104870 4.646419 126 112 135
0.947221 -1.174260 4.775523 120 103 126
0.923932 -0.585291 4.712541 75 62 90
0.852889 0.956986 4.547554 96 78 105
0.911192 -0.252723 4.678741 66 59 86
0.949678 -0.972822 4.764368 68 50 64
0.955540 -0.969021 4.765440 74 54 68
0.848468 1.202091 4.523494 126 101 110
0.940259 -0.774414 4.726866 56 42 55
0.849595 1.186207 4.521397 66 54 72
0.862846 1.014775 4.543094 62 48 67
0.857221 1.034037 4.527367 134 113 129
0.963880 -1.135329 4.764241 121 98 116
0.906536 0.114502 4.630456 49 43 63
0.906536 0.114502 4.630456 49 43 63
0.881786 0.741706 4.574920 128 107 122
0.852741 1.255210 4.500548 90 75 100
0.905475 0.303134 4.613156 124 108 118
0.889192 0.531802 4.574076 130 113 136
0.976641 -1.177024 4.762770 116 98 121
0.937640 -0.093877 4.649053 56 44 61
0.945732 -0.259088 4.666142 64 48 72
0.945732 -0.259088 4.666142 64 48 72
0.924322 0.319664 4.595532 130 110 133
0.974329 -0.779327 4.703606 70 60 74
0.974329 -0.779327 4.703606 70 60 74
0.898597 0.768030 4.536252 120 104 128
0.882253 1.190639 4.496464 79 60 76
0.910727 0.734104 4.540044 67 56 72
1.014570 -1.358271 4.764200 54 40 56
0.987309 -0.758022 4.699828 123 110 134
0.987309 -0.758022 4.699828 123 110 134
0.934546 0.318259 4.581192 135 117 138
0.941015 0.305331 4.593170 74 55 73
0.945807 0.132134 4.595609 105 89 109
0.930751 0.576182 4.553707 120 102 120
1.019634 -1.187788 4.738716 125 104 128
0.863298 1.325648 4.394983 77 59 71
0.863298 1.325648 4.394983 77 59 71
0.913686 1.002847 4.501432 68 55 74
0.923059 0.770031 4.518066 80 60 79
0.927205 0.840663 4.524119 138 114 121
0.944126 0.409673 4.557034 85 65 88
1.027577 -1.170083 4.731700 66 48 62
1.027577 -1.170083 4.731700 66 48 62
0.914951 1.203935 4.480349 117 94 99
1.005438 -0.607160 4.668512 127 110 119
0.945300 0.525342 4.536022 130 115 141
0.956033 0.407168 4.549717 90 71 91
0.966586 0.288083 4.569733 48 39 54
0.966586 0.288083 4.569733 48 39 54
0.938230 0.891655 4.503363 137 121 134
1.026194 -0.592614 4.650413 74 55 75
0.979633 0.296517 4.549629 128 109 126
0.978026 0.407210 4.533999 76 58 81
1.000738 0.118215 4.577720 59 49 70
0.951161 1.202319 4.469666 70 61 68
0.969705 0.615226 4.506934 75 64 93
1.013613 -0.092977 4.588038 52 47 73
0.969611 0.894867 4.487077 139 113 124
1.073430 -1.175002 4.701876 56 35 51
0.978839 0.725263 4.501250 59 48 70
1.000285 0.405839 4.521722 86 66 90
1.054426 -0.645544 4.633274 80 64 91
1.054426 -0.645544 4.633274 80 64 91
0.997264 0.568231 4.510322 133 117 130
0.965846 1.220151 4.442141 141 118 136
1.089366 -1.176831 4.693284 54 37 46
1.051413 -0.393883 4.610014 122 101 124
1.064144 -0.594102 4.625118 66 49 71
1.031752 0.107064 4.547190 69 61 83
