ply
		format ascii 1.0
		element vertex 11776
		property float x
		property float y
		property float z
		property uchar blue
		property uchar green
		property uchar red
		end_header
0.051150 0.099059 0.051313 22 23 43
0.050214 0.130883 0.050172 77 67 116
0.049073 -0.070256 0.049916 62 49 67
0.050461 0.380463 0.049385 93 64 86
0.048383 0.375720 0.046118 75 66 121
0.043383 -0.035582 0.043958 72 55 74
0.041975 0.014812 0.042861 43 35 72
0.042193 0.424229 0.040831 45 37 70
0.040400 0.019383 0.039215 97 74 91
0.036958 0.201825 0.036995 62 48 94
0.037017 0.294516 0.032789 62 48 94
0.029962 0.417548 0.028563 74 54 93
0.028825 0.420444 0.027173 79 60 106
0.025375 0.432711 0.026337 43 32 71
0.026179 0.175439 0.024910 43 32 71
0.024551 0.220918 0.023675 80 63 114
0.024177 0.325516 0.023656 80 63 114
0.023552 0.092353 0.023264 46 35 77
0.023075 0.033967 0.023354 80 65 86
0.022383 0.030181 0.022113 59 44 83
0.019509 0.299297 0.016165 95 81 128
0.016426 0.228471 0.016006 74 55 89
0.016244 0.038307 0.015124 80 72 125
-0.171784 0.170636 -0.174873 43 35 69
-0.176955 -0.090700 -0.173770 23 20 45
-0.173837 0.252123 -0.183118 36 30 66
-0.191655 -0.247806 -0.185544 36 30 66
-0.194360 -0.246662 -0.185092 81 61 116
-0.188576 -0.046090 -0.189484 35 26 69
-0.198003 -0.289839 -0.189623 92 76 126
-0.197883 -0.268596 -0.198244 47 37 73
-0.199986 -0.273643 -0.191835 47 37 73
-0.199491 -0.184107 -0.199940 100 82 130
-0.188483 0.296377 -0.200666 100 82 130
-0.200750 -0.140611 -0.195720 42 31 55
-0.195841 -0.009159 -0.195564 99 78 107
-0.190960 0.254779 -0.190512 45 34 66
-0.205333 -0.271785 -0.205301 74 63 81
-0.203965 -0.164163 -0.198722 30 24 58
-0.205534 -0.130596 -0.195149 42 31 56
-0.202325 0.068936 -0.212450 87 74 126
-0.204375 -0.034266 -0.203844 35 26 60
-0.211633 -0.293768 -0.211225 37 30 61
-0.211783 -0.158944 -0.203118 68 50 91
-0.197742 0.236968 -0.205378 68 50 91
-0.207766 -0.034452 -0.207822 68 50 91
-0.208921 -0.037468 -0.209193 75 57 90
-0.217590 -0.124800 -0.212328 75 57 90
-0.212388 -0.045576 -0.212278 57 51 69
-0.218513 -0.129865 -0.204817 90 78 126
-0.214362 -0.009383 -0.209764 92 72 100
-0.222659 -0.126593 -0.211982 40 30 62
-0.210320 0.194305 -0.222368 23 23 52
-0.222282 -0.248585 -0.225781 81 70 122
-0.225629 -0.126942 -0.219751 74 56 109
-0.215596 0.181232 -0.215214 27 25 57
-0.223636 -0.053326 -0.226694 85 62 100
-0.229878 -0.079538 -0.222580 81 62 115
-0.233360 -0.145348 -0.238546 85 62 100
-0.239176 -0.244072 -0.238991 25 23 59
-0.238651 -0.208496 -0.237123 99 83 136
-0.233744 -0.071890 -0.236924 73 65 122
-0.229352 0.202407 -0.244603 32 30 67
-0.234052 0.200677 -0.246745 37 29 57
-0.235543 0.179531 -0.235261 37 29 57
-0.248365 -0.160050 -0.237659 84 73 126
-0.246757 -0.118929 -0.248797 55 39 53
-0.239621 0.198317 -0.247425 55 39 53
-0.242350 0.185006 -0.241177 69 59 100
-0.242955 0.190699 -0.244621 95 81 135
-0.244620 0.205706 -0.247631 23 22 49
-0.244600 0.144827 -0.249261 23 22 49
-0.248350 0.291671 -0.247014 59 48 85
-0.248498 0.213036 -0.253817 78 53 65
-0.255435 0.069613 -0.254058 49 34 45
-0.261046 -0.083737 -0.255597 35 27 52
-0.255233 0.145772 -0.262061 128 130 134
-0.266516 -0.140361 -0.267160 105 68 80
-0.267364 -0.167214 -0.256508 184 178 180
-0.265009 0.016677 -0.258241 62 43 80
-0.256608 0.290222 -0.264737 15 17 25
-0.257488 0.274028 -0.260989 36 30 62
-0.271300 -0.163784 -0.266457 189 190 193
-0.260403 0.270221 -0.273744 26 23 48
-0.273496 -0.223494 -0.261633 26 24 53
-0.273813 -0.184068 -0.273216 39 30 60
-0.274092 -0.249503 -0.273400 39 30 60
-0.264741 0.135439 -0.263740 24 21 40
-0.264467 0.191061 -0.263824 83 69 112
-0.264780 0.230300 -0.272747 195 143 127
-0.272861 -0.037505 -0.263341 69 51 92
-0.266337 0.271767 -0.279102 76 59 93
-0.276247 -0.085461 -0.269813 49 39 73
-0.279237 -0.049028 -0.271402 66 87 101
-0.271852 0.245639 -0.274184 22 21 45
-0.274071 0.201740 -0.275473 139 139 148
-0.282761 -0.030765 -0.279996 32 41 61
-0.280515 0.133151 -0.280186 16 21 35
-0.281519 0.076873 -0.280781 23 24 54
-0.296044 -0.293957 -0.282729 188 180 184
-0.291803 -0.140439 -0.285314 116 116 125
-0.295782 -0.148553 -0.289769 75 69 121
-0.289173 0.106369 -0.289899 126 105 153
-0.291984 0.043201 -0.290905 126 105 153
-0.290268 0.287498 -0.291197 75 65 114
-0.300487 -0.132960 -0.293052 75 65 114
-0.292296 0.279939 -0.295895 55 43 79
-0.297859 0.163495 -0.296573 39 37 75
-0.298726 0.048244 -0.297256 44 34 65
-0.297563 0.199195 -0.299439 44 34 65
-0.302559 0.111245 -0.302213 91 88 95
-0.302647 0.278986 -0.306978 179 187 187
-0.312517 -0.139073 -0.306197 25 23 52
-0.305248 0.283189 -0.309673 80 62 85
-0.312181 0.047412 -0.312456 56 50 63
-0.315333 0.018194 -0.318678 36 29 65
-0.317223 0.202449 -0.318917 171 190 199
-0.319346 0.111842 -0.322569 121 104 126
-0.323354 -0.016343 -0.323354 109 109 118
-0.320358 0.283516 -0.326519 63 49 70
-0.327930 -0.265743 -0.326644 148 159 166
-0.325586 0.018660 -0.324830 107 124 142
-0.324830 0.282878 -0.324594 72 64 110
-0.324567 0.227780 -0.327864 160 178 190
-0.328807 0.213603 -0.328604 160 147 156
-0.330894 -0.026570 -0.332377 172 188 196
-0.331857 0.048194 -0.336970 52 39 78
-0.336327 -0.213781 -0.335036 52 39 78
-0.331530 0.292260 -0.333133 65 54 95
-0.334626 0.138963 -0.334655 73 58 84
-0.332828 0.259513 -0.333819 149 169 180
-0.337000 0.032505 -0.337000 149 169 180
-0.336679 0.052292 -0.334419 25 28 45
-0.336135 0.155711 -0.335758 78 59 83
-0.338454 -0.144001 -0.337655 203 215 219
-0.337568 0.208127 -0.342575 203 215 219
-0.342441 -0.078640 -0.336747 110 116 130
-0.340896 0.209214 -0.341958 113 129 146
-0.345197 -0.148336 -0.343888 70 58 103
-0.345500 -0.148812 -0.346561 145 157 165
-0.346489 -0.153340 -0.345031 118 99 144
-0.345745 0.079915 -0.343021 129 154 170
-0.341011 0.093175 -0.341011 80 59 86
-0.345498 0.159034 -0.347713 80 59 86
-0.340914 0.214143 -0.349854 33 57 90
-0.350391 -0.192364 -0.348077 67 51 92
-0.351396 -0.154825 -0.346830 67 51 92
-0.351312 -0.216228 -0.350854 36 30 63
-0.350382 -0.049021 -0.351890 25 24 45
-0.352894 -0.157152 -0.351874 107 89 136
-0.343654 0.263567 -0.349031 107 89 136
-0.350398 0.262629 -0.347517 70 75 94
-0.354833 -0.177196 -0.352840 57 49 62
-0.353997 0.154869 -0.354613 88 101 126
-0.356636 -0.230710 -0.353284 142 158 169
-0.354640 -0.081699 -0.354734 30 31 65
-0.355064 0.240363 -0.355787 93 78 129
-0.349960 0.221065 -0.358387 134 156 170
-0.353264 -0.162635 -0.357472 104 115 132
-0.356473 0.020603 -0.357794 24 22 50
-0.357059 0.166198 -0.357483 24 22 50
-0.358751 -0.081935 -0.360431 61 47 82
-0.361420 -0.199668 -0.358890 43 54 83
-0.361207 0.015139 -0.357302 131 142 155
-0.359342 0.195490 -0.359671 131 142 155
-0.361662 -0.008969 -0.363448 101 110 123
-0.359113 0.162900 -0.356364 133 165 181
-0.363883 -0.242302 -0.363855 11 27 49
-0.361851 0.122729 -0.362807 137 117 131
-0.360778 0.290517 -0.361921 17 34 62
-0.363885 0.021834 -0.366449 33 27 57
-0.366563 -0.099120 -0.365415 69 55 75
-0.368003 -0.181538 -0.365205 137 150 161
-0.363818 0.279867 -0.366237 55 44 82
-0.367783 -0.228183 -0.365866 23 20 32
-0.362092 -0.008017 -0.363573 31 31 61
-0.367426 0.007267 -0.371883 31 31 61
-0.365346 -0.145196 -0.365346 76 76 97
-0.369862 -0.103596 -0.369031 131 157 173
-0.367088 0.247566 -0.369377 16 18 39
-0.364780 0.024395 -0.368691 19 19 47
-0.372033 -0.166804 -0.372596 19 19 47
-0.372636 -0.233492 -0.373057 17 17 37
-0.364979 0.250900 -0.369449 92 82 135
-0.372800 -0.141439 -0.374076 92 82 135
-0.372233 0.125270 -0.374487 77 64 113
-0.374909 -0.076440 -0.374384 146 161 173
-0.376373 -0.201068 -0.374535 134 156 174
-0.375428 0.179544 -0.375368 33 27 74
-0.376512 0.058435 -0.376154 80 78 101
-0.377001 -0.057793 -0.375512 161 186 198
-0.371833 0.211425 -0.375096 45 28 44
-0.372429 0.169418 -0.376066 27 24 46
-0.375377 -0.187962 -0.378127 62 51 107
-0.377156 0.191366 -0.377146 63 82 104
-0.381223 -0.235904 -0.379091 96 80 132
-0.381697 -0.243677 -0.374343 66 57 80
-0.379352 0.235624 -0.377198 138 152 169
-0.378966 -0.192460 -0.381405 76 74 88
-0.387542 -0.236399 -0.384613 25 23 44
-0.386690 -0.077825 -0.384673 118 140 156
-0.385118 0.222284 -0.389028 48 43 53
-0.387346 0.205268 -0.388924 189 201 206
-0.390021 0.151025 -0.391953 202 193 195
-0.389547 0.176075 -0.391248 23 21 49
-0.393818 -0.197848 -0.389952 32 27 47
-0.394235 -0.043714 -0.394332 95 95 112
-0.393999 -0.184383 -0.390749 146 118 126
-0.394176 -0.238064 -0.392405 42 39 74
-0.391023 -0.182903 -0.394191 96 79 130
-0.393527 0.188049 -0.396486 158 181 197
-0.393753 0.219782 -0.395640 92 79 128
-0.394621 0.219146 -0.394689 45 36 82
-0.394884 0.182618 -0.397852 34 27 57
-0.394121 0.203106 -0.393367 47 38 52
-0.392817 -0.098991 -0.397009 70 63 102
-0.395614 0.213049 -0.396090 30 26 37
-0.398141 -0.142148 -0.396772 30 26 37
-0.400301 -0.243507 -0.398554 122 105 159
-0.398666 0.054668 -0.398616 33 25 50
-0.399638 0.155125 -0.395590 33 25 50
-0.395590 0.208504 -0.402402 44 37 54
-0.402402 -0.014487 -0.401744 143 157 176
-0.402321 -0.018199 -0.405598 129 144 159
-0.402027 0.234703 -0.401225 132 157 171
-0.405242 -0.244422 -0.403275 42 31 32
-0.404329 0.260119 -0.402452 32 23 51
-0.408044 -0.243493 -0.405549 44 43 74
-0.407753 0.183780 -0.409110 28 22 35
-0.411818 -0.221352 -0.406923 54 46 96
-0.411605 -0.210013 -0.410116 33 31 74
-0.411321 -0.206820 -0.412031 74 63 117
-0.408753 0.209022 -0.410370 67 48 85
-0.409291 0.231315 -0.404413 113 104 68
-0.408895 0.169344 -0.409835 23 23 45
-0.410210 0.204991 -0.409493 112 91 138
-0.411886 0.253256 -0.410205 91 79 133
-0.410205 0.280152 -0.411625 45 35 68
-0.414435 -0.102487 -0.411217 85 70 119
-0.413399 -0.013652 -0.413110 98 81 132
-0.414667 -0.072058 -0.416396 119 102 60
-0.415416 0.153547 -0.415498 42 33 74
-0.409651 0.212030 -0.410375 39 30 70
-0.417930 -0.239017 -0.420055 43 33 39
-0.420262 -0.268639 -0.415641 45 37 75
-0.416494 0.244923 -0.416205 95 81 131
-0.418238 0.030990 -0.418523 23 23 34
-0.418689 0.064436 -0.418562 35 35 70
-0.417370 0.248589 -0.421013 23 23 34
-0.422901 -0.201083 -0.421960 54 39 22
-0.419755 0.176123 -0.423156 52 37 68
-0.423270 -0.156757 -0.424021 49 36 79
-0.422748 -0.019991 -0.424635 32 27 59
-0.422961 0.168703 -0.423531 83 75 130
-0.424111 0.248798 -0.429449 82 71 117
-0.427482 0.122126 -0.426955 52 45 105
-0.427472 -0.047864 -0.427097 52 45 105
-0.425549 0.241432 -0.425702 52 45 105
-0.425410 0.257396 -0.430706 117 130 155
-0.430726 -0.052574 -0.431468 62 46 88
-0.432792 -0.179274 -0.432354 100 84 131
-0.432052 0.127235 -0.434919 38 30 66
-0.434051 0.031236 -0.435309 103 119 135
-0.435961 0.250924 -0.437752 46 39 76
-0.436797 0.149525 -0.438032 88 74 129
-0.441397 -0.162080 -0.440902 109 91 145
-0.439755 0.125370 -0.438953 114 100 153
-0.439018 0.238841 -0.437316 108 96 148
-0.443596 -0.159866 -0.442042 176 193 198
-0.441933 -0.047689 -0.443438 90 78 134
-0.440449 0.147637 -0.440972 36 28 67
-0.446243 -0.226981 -0.441597 36 28 67
-0.441048 0.290367 -0.444611 52 39 82
-0.446702 -0.140448 -0.440178 42 28 60
-0.444476 0.093532 -0.446448 102 89 141
-0.444311 0.242934 -0.444940 62 46 82
-0.444591 0.248016 -0.444198 102 87 135
-0.447103 -0.108439 -0.448275 37 29 62
-0.448594 -0.101688 -0.448582 111 92 139
-0.449178 -0.164534 -0.449422 38 30 63
-0.450882 -0.133019 -0.451460 32 27 65
-0.448083 0.149835 -0.452590 90 72 110
-0.451079 0.261990 -0.451179 26 21 53
-0.453695 -0.247114 -0.452211 49 40 62
-0.454846 -0.188469 -0.453681 91 80 134
-0.452305 0.142751 -0.449075 62 46 80
-0.455846 -0.003852 -0.454405 87 75 130
-0.455097 -0.261404 -0.454538 33 26 67
-0.453586 0.243506 -0.455360 65 58 104
-0.454237 0.232811 -0.456949 65 58 104
-0.456897 0.030541 -0.457061 111 94 121
-0.458822 -0.004525 -0.458233 29 25 59
-0.457658 0.001078 -0.457883 41 32 69
-0.460621 -0.251037 -0.460838 41 32 69
-0.460791 -0.001871 -0.460786 25 24 55
-0.461342 0.032267 -0.462294 46 37 80
-0.462150 -0.113637 -0.460070 79 70 114
-0.464669 -0.159604 -0.464431 81 59 107
-0.464976 -0.064612 -0.465994 23 21 53
-0.460949 -0.065432 -0.462607 115 103 156
-0.465992 -0.209483 -0.467673 35 27 60
-0.467711 -0.245814 -0.465594 32 30 81
-0.468244 -0.046650 -0.468794 70 51 67
-0.469280 -0.076742 -0.471074 64 49 89
-0.471455 -0.266372 -0.472340 47 40 56
-0.472079 -0.142085 -0.472098 59 50 84
-0.473032 -0.169700 -0.473623 59 50 84
-0.470039 -0.113338 -0.476103 141 116 135
-0.478525 -0.152104 -0.483053 102 88 134
-0.485139 -0.311125 -0.483942 50 39 76
-0.485523 -0.290603 -0.487247 111 93 149
-0.487778 -0.292667 -0.486701 15 18 43
-0.484593 -0.260290 -0.487986 15 18 43
-0.489865 -0.236118 -0.491287 18 16 25
-0.489970 -0.141816 -0.489919 60 52 74
-0.492072 -0.244771 -0.493273 74 55 72
-0.493480 -0.256216 -0.498105 48 41 67
-0.496300 -0.039381 -0.497776 74 58 82
-0.493206 0.051896 -0.498929 49 41 65
-0.502899 -0.272818 -0.502770 135 114 133
-0.505258 -0.295498 -0.505471 38 30 62
-0.498913 0.079121 -0.503075 45 34 69
-0.503052 -0.077278 -0.507595 35 28 67
-0.509470 -0.164454 -0.506156 34 30 63
-0.510725 -0.326943 -0.513132 65 47 77
-0.515337 -0.283482 -0.517185 87 74 126
-0.520022 -0.304339 -0.515454 51 41 76
-0.518238 0.142361 -0.519244 32 27 64
-0.531400 0.257391 -0.534569 36 28 73
-0.532560 0.184918 -0.539995 102 86 136
-0.540090 -0.258912 -0.541820 132 114 133
-0.543848 0.017962 -0.543550 51 43 60
-0.547963 -0.178562 -0.548115 45 41 79
-0.549083 -0.230858 -0.552243 103 86 140
-0.551277 -0.223269 -0.556393 51 39 79
-0.553397 -0.227754 -0.555169 35 29 60
-0.555148 -0.216526 -0.551361 54 45 77
-0.554196 0.017106 -0.552847 54 45 77
-0.561419 -0.086905 -0.560487 88 72 106
-0.870385 -0.973583 -0.872850 50 37 82
-0.876559 -0.987853 -0.887238 38 30 66
-0.887520 -0.960653 -0.887873 39 32 73
-0.886032 -0.890983 -0.894645 74 62 93
-0.892715 -0.895326 -0.895726 74 62 93
-0.894956 -0.924301 -0.897412 97 86 135
-0.894844 -0.952151 -0.897999 81 66 100
-0.899864 -0.956014 -0.900921 42 34 68
-0.902840 -0.956576 -0.905537 129 108 143
-0.904207 -0.976162 -0.906623 80 70 108
-0.909545 -0.948788 -0.907462 39 33 80
-0.907709 -0.984492 -0.909172 38 32 63
-0.909699 -0.992458 -0.909755 50 43 54
-0.910989 -0.960729 -0.910992 47 36 71
-0.907551 -0.957027 -0.907860 58 47 68
-0.908542 -0.979720 -0.910955 58 47 68
-0.910882 -0.965845 -0.915858 62 55 76
-0.914909 -0.924633 -0.914340 29 23 50
-0.917418 -0.994406 -0.917871 61 55 92
-0.909029 -0.949228 -0.916816 64 54 97
-0.916779 -0.979312 -0.911083 76 57 76
-0.910683 -0.955591 -0.911673 56 44 81
-0.918944 -0.986222 -0.920218 56 44 81
-0.920422 -0.969655 -0.920183 29 33 82
-0.920176 -0.932509 -0.921695 45 39 86
-0.921859 -0.931660 -0.921658 43 40 83
-0.920226 -0.926574 -0.915682 83 68 101
-0.921921 -0.930081 -0.923378 144 119 135
-0.919991 -0.913917 -0.922427 125 104 147
-0.914635 -0.970995 -0.911173 82 70 122
-0.910936 -0.957985 -0.919730 48 41 68
-0.920087 -0.903695 -0.921757 27 23 53
-0.923372 -0.886840 -0.922126 118 97 144
-0.913253 -0.991526 -0.912533 86 63 87
-0.920750 -0.901335 -0.913968 98 85 140
-0.910678 -0.983026 -0.917538 47 40 72
-0.917982 -0.930563 -0.917593 105 90 143
-0.917710 -0.961757 -0.910315 38 29 62
-0.920671 -0.956605 -0.910366 44 40 50
-0.921927 -0.961702 -0.918346 44 37 65
-0.921293 -0.950475 -0.917323 42 37 67
-0.921337 -0.937965 -0.922445 25 24 58
-0.918696 -0.918799 -0.922028 86 71 101
-0.919257 -0.925785 -0.918460 53 41 83
-0.921288 -0.950733 -0.919684 53 41 83
-0.921239 -0.938234 -0.921599 41 33 68
-0.920229 -0.976201 -0.919812 105 88 143
-0.920012 -0.973087 -0.920826 23 20 51
-0.911200 -0.973937 -0.919471 117 97 143
-0.920130 -0.949103 -0.910775 30 22 48
-0.910394 -0.961142 -0.918695 30 22 48
-0.919466 -0.928962 -0.918809 47 35 73
-0.916556 -0.990077 -0.919835 55 50 69
-0.919093 -0.982878 -0.906761 78 62 86
-0.915490 -0.983622 -0.915547 42 33 62
-0.915964 -0.970955 -0.919633 144 122 141
-0.917412 -0.952755 -0.919918 51 40 73
-0.919598 -0.950358 -0.917160 140 119 143
-0.920230 -0.948921 -0.918929 28 22 38
-0.915482 -0.980829 -0.918002 46 37 66
-0.920564 -0.889776 -0.915997 46 37 66
-0.915508 -0.945859 -0.919611 32 30 45
-0.916212 -0.900713 -0.915214 105 90 134
-0.915102 -0.960890 -0.916550 42 35 60
-0.920144 -0.906233 -0.920498 36 31 67
-0.920007 -0.946330 -0.918054 79 60 84
-0.920831 -0.922729 -0.917677 32 25 60
-0.917385 -0.991312 -0.912275 50 39 71
-0.920144 -0.941911 -0.916760 50 39 71
-0.917852 -0.911199 -0.919429 69 56 79
-0.917232 -0.914245 -0.919994 35 31 58
-0.918808 -0.962755 -0.918801 87 73 110
-0.918623 -0.972649 -0.918669 50 40 71
-0.914867 -0.994308 -0.917956 50 40 71
-0.918899 -0.914506 -0.919056 43 34 66
-0.917579 -0.987285 -0.916262 47 39 82
-0.913213 -0.927085 -0.918247 38 34 68
-0.913048 -0.984840 -0.917585 47 40 71
-0.915106 -0.889146 -0.916706 89 71 94
-0.915805 -0.987879 -0.917079 48 41 68
-0.917329 -0.920768 -0.917711 84 68 94
-0.917376 -0.936461 -0.917721 57 46 86
-0.914299 -0.935748 -0.916534 84 67 97
-0.915634 -0.953888 -0.916652 79 57 76
-0.916115 -0.927680 -0.913990 108 91 144
-0.915546 -0.972118 -0.915635 76 65 96
-0.916163 -0.954044 -0.916776 60 57 89
-0.915328 -0.971647 -0.914192 44 35 64
-0.914202 -0.944403 -0.912765 76 58 78
-0.912977 -0.896778 -0.912455 107 89 136
-0.906040 -0.950586 -0.913879 140 126 151
-0.913566 -0.938516 -0.913785 71 57 77
-0.913142 -0.905729 -0.911662 94 81 110
-0.912914 -0.886160 -0.911224 85 71 102
-0.911585 -0.949307 -0.910814 118 102 116
-0.910553 -0.926076 -0.910574 86 67 97
-0.909939 -0.941692 -0.908868 79 68 102
-0.908271 -0.938515 -0.906820 85 62 90
-0.907375 -0.994977 -0.910076 88 68 93
-0.910076 -0.937643 -0.908492 91 66 81
-0.908557 -0.968697 -0.907474 77 61 76
-0.907870 -0.970503 -0.907592 59 50 74
-0.906735 -0.994726 -0.909158 83 65 93
-0.909309 -0.939961 -0.907215 84 68 94
-0.908334 -0.874791 -0.906761 120 101 147
-0.908360 -0.948851 -0.906806 137 120 145
-0.909549 -0.886826 -0.906594 137 120 145
-0.907403 -0.959948 -0.907302 108 90 136
-0.909105 -0.930703 -0.909105 52 40 76
-0.909005 -0.966220 -0.907139 60 50 91
-0.909586 -0.943860 -0.909790 60 50 91
-0.906798 -0.983848 -0.910072 86 74 105
-0.910331 -0.886012 -0.907455 104 88 142
-0.907763 -0.958920 -0.899189 77 63 95
-0.908633 -0.945742 -0.908936 93 65 82
-0.907561 -0.943921 -0.905943 53 41 68
-0.908155 -0.946239 -0.908382 93 69 87
-0.907722 -0.954276 -0.909316 65 51 76
-0.909048 -0.896207 -0.898634 49 41 74
-0.900842 -0.990531 -0.900842 22 23 37
-0.908249 -0.977216 -0.906049 137 115 132
-0.901216 -0.970076 -0.907618 49 48 89
-0.908353 -0.899760 -0.909846 49 39 68
-0.909078 -0.903291 -0.908013 75 60 90
-0.907380 -0.967305 -0.909006 24 24 39
-0.908464 -0.987656 -0.907789 24 24 39
-0.909371 -0.897839 -0.908101 52 44 62
-0.902173 -0.953234 -0.908284 45 39 52
-0.911535 -0.864802 -0.901226 130 114 138
-0.907861 -0.973327 -0.908997 95 73 99
-0.910088 -0.932218 -0.910053 66 61 90
-0.907387 -0.908191 -0.909360 68 51 73
-0.907010 -0.992309 -0.906970 81 61 84
-0.910861 -0.886306 -0.910559 47 39 65
-0.902144 -0.970253 -0.907908 23 22 47
-0.900712 -0.977957 -0.907509 138 118 138
-0.907990 -0.993936 -0.908792 68 59 82
-0.910876 -0.882172 -0.910685 48 42 76
-0.907248 -0.991535 -0.908451 35 33 70
-0.908291 -0.958514 -0.909585 80 58 75
-0.910138 -0.906653 -0.900114 113 94 143
-0.909538 -0.960183 -0.909321 61 49 65
-0.908743 -0.950018 -0.908010 74 57 78
-0.907607 -0.982115 -0.902122 66 57 85
-0.907897 -0.957034 -0.907924 66 57 85
-0.909642 -0.973996 -0.910926 82 66 91
-0.910180 -0.941085 -0.909359 35 32 68
-0.909290 -0.975840 -0.909774 73 62 87
-0.909917 -0.896156 -0.908429 73 62 87
-0.909769 -0.878444 -0.909139 82 69 98
-0.909780 -0.913792 -0.910904 81 69 99
-0.906692 -0.969454 -0.907624 81 69 99
-0.902187 -0.991186 -0.901627 67 57 67
-0.908491 -0.987919 -0.906355 81 59 74
-0.901130 -0.982786 -0.901130 36 31 50
-0.907381 -0.985683 -0.910379 77 64 85
-0.907704 -0.964161 -0.908201 58 49 91
-0.901732 -0.990303 -0.908401 87 67 86
-0.907207 -0.937812 -0.906920 87 67 86
-0.906974 -0.929721 -0.906809 87 67 86
-0.902075 -0.960280 -0.908426 138 119 143
-0.907309 -0.947177 -0.906669 88 74 93
-0.907566 -0.979846 -0.906687 88 69 97
-0.906545 -0.948216 -0.907510 72 49 70
-0.905948 -0.959528 -0.906998 59 48 89
-0.908921 -0.883186 -0.906846 82 68 93
-0.907102 -0.910853 -0.906662 81 68 95
-0.906004 -0.990675 -0.907024 79 63 87
-0.900577 -0.968171 -0.898975 83 69 93
-0.900322 -0.976273 -0.898857 83 69 93
-0.899215 -0.976988 -0.904198 64 53 80
-0.906704 -0.942356 -0.906726 73 60 86
-0.904741 -0.954790 -0.906001 73 60 86
-0.904438 -0.961339 -0.900204 143 118 133
-0.906176 -0.951056 -0.898793 83 63 77
-0.898055 -0.974259 -0.897012 145 121 132
-0.902919 -0.931479 -0.904266 78 61 89
-0.903430 -0.967793 -0.903864 141 118 142
-0.904405 -0.903839 -0.902595 51 42 80
-0.902951 -0.969908 -0.904788 72 57 81
-0.904307 -0.890529 -0.901086 138 117 133
-0.902882 -0.913126 -0.902175 74 53 77
-0.900873 -0.933193 -0.901091 145 121 139
-0.902719 -0.904502 -0.902840 57 49 72
-0.900403 -0.974383 -0.901387 68 53 79
-0.899455 -0.966341 -0.900722 128 108 119
-0.894449 -0.975713 -0.899900 68 57 79
-0.901658 -0.952304 -0.899241 63 50 76
-0.901882 -0.897219 -0.901030 122 101 115
-0.901690 -0.935816 -0.901659 63 48 64
-0.901345 -0.902846 -0.900004 52 37 48
-0.900241 -0.973808 -0.894041 52 37 48
-0.894284 -0.986673 -0.900590 71 55 85
-0.900344 -0.967881 -0.900907 63 50 57
-0.898848 -0.978585 -0.899612 71 57 65
-0.898206 -0.961139 -0.900246 46 40 73
-0.899065 -0.985894 -0.899008 51 44 60
-0.899593 -0.905694 -0.893752 88 68 90
-0.893752 -0.969944 -0.898563 88 68 90
-0.898563 -0.967391 -0.897239 82 69 94
-0.897915 -0.986607 -0.897316 82 69 94
-0.899201 -0.930979 -0.898283 137 122 141
-0.896130 -0.959149 -0.898609 69 58 80
-0.900272 -0.863604 -0.896893 69 58 80
-0.896279 -0.936441 -0.897062 144 118 137
-0.898677 -0.881978 -0.894691 72 61 80
-0.896680 -0.876910 -0.895960 141 121 141
-0.894710 -0.956131 -0.895721 67 54 57
-0.894472 -0.961681 -0.893975 130 104 120
-0.895425 -0.966004 -0.895695 66 54 84
-0.896274 -0.914617 -0.890172 71 57 77
-0.894772 -0.980482 -0.895704 138 118 132
-0.895520 -0.958182 -0.895085 47 40 56
-0.897278 -0.864886 -0.895112 146 127 145
-0.895112 -0.949051 -0.894413 138 115 126
-0.893982 -0.968686 -0.894104 69 59 82
-0.893538 -0.989982 -0.893217 66 53 73
-0.893510 -0.981211 -0.895421 66 53 73
-0.895986 -0.883206 -0.893536 48 41 54
-0.889062 -0.970840 -0.888685 60 49 67
-0.892645 -0.936130 -0.891201 60 49 67
-0.891418 -0.920593 -0.893996 119 101 116
-0.893224 -0.953142 -0.892911 120 106 136
-0.892779 -0.971886 -0.891713 80 70 80
-0.892952 -0.955830 -0.892817 69 55 75
-0.892952 -0.952658 -0.890836 78 59 75
-0.890826 -0.944875 -0.891368 61 48 66
-0.890826 -0.979779 -0.890481 140 115 133
-0.890411 -0.970901 -0.890005 74 61 79
-0.890303 -0.989486 -0.889918 135 118 124
-0.891066 -0.967675 -0.890023 49 35 55
-0.890633 -0.953876 -0.887912 49 35 55
-0.891177 -0.889674 -0.888609 49 35 55
-0.889142 -0.938057 -0.888403 81 65 85
-0.889894 -0.920693 -0.889828 121 104 113
-0.889522 -0.956532 -0.887455 77 58 74
-0.887783 -0.973724 -0.887479 125 107 111
-0.886785 -0.949053 -0.886992 35 28 42
-0.887286 -0.916661 -0.885673 63 54 56
-0.886672 -0.969825 -0.884800 63 54 56
-0.885268 -0.951597 -0.885199 121 101 117
-0.884261 -0.979055 -0.884278 143 118 119
-0.884532 -0.884702 -0.882632 140 115 127
-0.884250 -0.898934 -0.884122 143 119 129
-0.884185 -0.911984 -0.880598 143 119 129
-0.883616 -0.885432 -0.884577 72 61 85
-0.882515 -0.945904 -0.881749 82 62 79
-0.882057 -0.984067 -0.882578 61 49 68
-0.882406 -0.869956 -0.883286 136 111 117
-0.882617 -0.947731 -0.880724 80 65 81
-0.882326 -0.886011 -0.877267 80 65 81
-0.881867 -0.934755 -0.882645 90 62 79
-0.881908 -0.919454 -0.882490 145 123 128
-0.882159 -0.935203 -0.880639 145 123 128
-0.880697 -0.962848 -0.881929 86 66 89
-0.881768 -0.894408 -0.878996 74 66 89
-0.879560 -0.910054 -0.879438 74 54 73
-0.880693 -0.886408 -0.880373 53 47 70
-0.879817 -0.979250 -0.879956 84 60 76
-0.880883 -0.865032 -0.878720 75 65 88
-0.876964 -0.960754 -0.880385 64 50 71
-0.877658 -0.894484 -0.877025 60 46 60
-0.877293 -0.984140 -0.874024 139 108 116
-0.878401 -0.895237 -0.877117 68 53 70
-0.875235 -0.960943 -0.877150 76 62 78
-0.877824 -0.918494 -0.876818 138 114 125
-0.877806 -0.911970 -0.878209 83 62 87
-0.875994 -0.986956 -0.876133 61 52 67
-0.877218 -0.895873 -0.875366 61 52 67
-0.875731 -0.946629 -0.877851 145 122 125
-0.874031 -0.933293 -0.876299 142 123 141
-0.876257 -0.894673 -0.872840 144 123 131
-0.874005 -0.945590 -0.873416 78 63 76
-0.873281 -0.984491 -0.874779 135 116 132
-0.873013 -0.903398 -0.873221 68 56 78
-0.872899 -0.912828 -0.873790 84 69 84
-0.869140 -0.992767 -0.873926 66 50 72
-0.871517 -0.964288 -0.872926 129 114 141
-0.870588 -0.957565 -0.872011 61 53 75
-0.871420 -0.914735 -0.870145 64 49 67
-0.870064 -0.979795 -0.871257 143 122 145
-0.868533 -0.956725 -0.868410 138 101 108
-0.868613 -0.943660 -0.868578 60 49 70
-0.868074 -0.931721 -0.867729 76 63 85
-0.864813 -0.986799 -0.866539 135 114 136
-0.864946 -0.980890 -0.861143 49 34 45
-0.861427 -0.930817 -0.862477 80 62 80
-0.860927 -0.930104 -0.860421 60 48 71
-0.858682 -0.951882 -0.860621 109 92 101
-0.857374 -0.958509 -0.860192 109 92 101
-0.859427 -0.927410 -0.858151 85 60 73
-0.859122 -0.915492 -0.861646 127 114 139
-0.857730 -0.941558 -0.857022 139 113 126
-0.856897 -0.958085 -0.854724 81 64 89
-0.855511 -0.986711 -0.855097 53 45 56
-0.853086 -0.991890 -0.854566 127 108 125
-0.852212 -0.879945 -0.852099 127 108 125
-0.850920 -0.874784 -0.852642 78 63 83
-0.850530 -0.992052 -0.850540 69 49 64
-0.850478 -0.992984 -0.847519 141 116 130
-0.850502 -0.885868 -0.848802 92 66 83
-0.845759 -0.941459 -0.846698 70 57 82
-0.845108 -0.934205 -0.843985 79 60 76
-0.842410 -0.902578 -0.845000 67 49 66
-0.846029 -0.892009 -0.841848 67 49 66
-0.838114 -0.864537 -0.831863 70 50 68
-0.837426 -0.876720 -0.830527 78 58 78
-0.830581 -0.946463 -0.829583 136 120 106
-0.828646 -0.971039 -0.825461 150 129 132
-0.825658 -0.924616 -0.825386 150 129 132
-0.824629 -0.965120 -0.822686 68 55 77
-0.821498 -0.970600 -0.821781 129 110 129
-0.820148 -0.969686 -0.821195 84 64 90
-0.820816 -0.925582 -0.820755 44 38 53
-0.821943 -0.969325 -0.820768 44 38 53
-0.815009 -0.991673 -0.814401 94 73 93
-0.139623 -0.111470 -0.119116 66 55 73
-0.113292 -0.106664 -0.101714 138 115 121
-0.102333 -0.104304 -0.080783 138 115 121
-0.082603 -0.079646 -0.081884 116 95 119
-0.083999 -0.080577 -0.081814 129 110 131
-0.082256 -0.089186 -0.081986 129 110 131
-0.104096 -0.095875 -0.093731 69 48 59
-0.115301 -0.098779 -0.105950 57 48 71
-0.103538 -0.096187 -0.100835 58 41 61
-0.109100 -0.099985 -0.102540 126 108 131
-0.101564 -0.100377 -0.102420 82 60 77
-0.100300 -0.095750 -0.098824 121 100 125
-0.098150 -0.096873 -0.098287 83 64 82
-0.098124 -0.097601 -0.100032 127 109 120
-0.100832 -0.091476 -0.099926 45 33 45
-0.108684 -0.099771 -0.099518 69 59 89
-0.095130 -0.089789 -0.087479 57 44 57
-0.088498 -0.092825 -0.105145 57 44 57
-0.103522 -0.097510 -0.103006 134 119 122
-0.159693 -0.096529 -0.103419 67 51 71
-0.102789 -0.092548 -0.164772 146 121 135
-0.174772 -0.107281 -0.158468 146 123 128
-0.100015 -0.093837 -0.098180 72 59 80
-0.097286 -0.091396 -0.099633 76 68 73
-0.094584 -0.087840 -0.094356 144 122 124
-0.092749 -0.090505 -0.095465 75 62 77
-0.094052 -0.087876 -0.160750 123 103 125
-0.092766 -0.091219 -0.090420 85 65 83
-0.092895 -0.087538 -0.097651 120 98 120
-0.163207 -0.103888 -0.165396 52 47 69
-0.167408 -0.100466 -0.094194 52 41 52
-0.092358 -0.087960 -0.093932 64 55 75
-0.089362 -0.095208 -0.105095 82 61 77
-0.162115 -0.101445 -0.162140 84 69 92
-0.091226 -0.090080 -0.160918 79 65 84
-0.163072 -0.099339 -0.103877 159 130 144
-0.099246 -0.083547 -0.103772 123 109 135
-0.103649 -0.087938 -0.163598 64 53 77
-0.098179 -0.089910 -0.169315 80 67 93
-0.101602 -0.094006 -0.097855 74 57 79
-0.098825 -0.093325 -0.103796 74 57 79
-0.096723 -0.093125 -0.094167 79 65 83
-0.097224 -0.086401 -0.095028 60 49 65
-0.096993 -0.088005 -0.099540 60 49 65
-0.099790 -0.093271 -0.097618 71 51 57
-0.097895 -0.093075 -0.097631 154 122 133
-0.106787 -0.096670 -0.106794 145 123 138
-0.107069 -0.096527 -0.096787 53 46 65
-0.174414 -0.106310 -0.107168 86 71 94
-0.105911 -0.094438 -0.175442 51 43 63
-0.175432 -0.105898 -0.107814 69 56 76
-0.095886 -0.093009 -0.106842 69 56 76
-0.108310 -0.093947 -0.099072 157 131 146
-0.107339 -0.096020 -0.178126 61 44 55
-0.109614 -0.092448 -0.109552 129 109 130
-0.106617 -0.089178 -0.103868 60 50 70
-0.100502 -0.091781 -0.097777 66 52 73
-0.107265 -0.094545 -0.107763 89 71 93
-0.105012 -0.093388 -0.108104 63 49 62
-0.110737 -0.092394 -0.102119 135 114 136
-0.095467 -0.093255 -0.098938 128 107 131
-0.105216 -0.085069 -0.102099 51 44 65
-0.097884 -0.085591 -0.110738 62 51 74
-0.110490 -0.088045 -0.102530 57 42 53
-0.095235 -0.094618 -0.094914 70 53 67
-0.101123 -0.093037 -0.124699 207 111 71
-0.099460 -0.092803 -0.105896 132 112 129
-0.109043 -0.093822 -0.167367 154 128 138
-0.104369 -0.092523 -0.098795 84 64 87
-0.097738 -0.090065 -0.103122 89 69 86
-0.097850 -0.091424 -0.095843 77 63 86
-0.108397 -0.095020 -0.105155 77 63 86
-0.108407 -0.095176 -0.106285 107 45 40
-0.124096 -0.095205 -0.107383 55 43 63
-0.097920 -0.094177 -0.097680 54 42 59
-0.108421 -0.094594 -0.123258 142 125 134
-0.107494 -0.081456 -0.103558 81 60 77
-0.124724 -0.092541 -0.106580 81 60 77
-0.098287 -0.088411 -0.104998 70 56 68
-0.119668 -0.095122 -0.106919 70 56 73
-0.099066 -0.093345 -0.100174 70 56 73
-0.105780 -0.092034 -0.099833 76 64 91
-0.103395 -0.087579 -0.109067 76 64 91
-0.119766 -0.093958 -0.100353 132 110 129
-0.101005 -0.093442 -0.124045 132 110 129
-0.106063 -0.092392 -0.110390 125 106 115
-0.105628 -0.092916 -0.097651 59 41 57
-0.107048 -0.093011 -0.118502 59 41 57
-0.118142 -0.091986 -0.118326 59 49 62
-0.099541 -0.088557 -0.126176 63 55 76
-0.171702 -0.099165 -0.106841 83 64 81
-0.102404 -0.092507 -0.100456 122 102 124
-0.099117 -0.094078 -0.103406 88 63 79
-0.098686 -0.095526 -0.108687 76 68 94
-0.104562 -0.092809 -0.101330 70 53 66
-0.101311 -0.091920 -0.101863 94 75 97
-0.117676 -0.091783 -0.107889 125 101 111
-0.108318 -0.082953 -0.126175 141 115 128
-0.125820 -0.095588 -0.107550 136 115 131
-0.107550 -0.091848 -0.122287 124 110 134
-0.125655 -0.094906 -0.125584 63 50 66
-0.122636 -0.094615 -0.126266 88 74 102
-0.126961 -0.094387 -0.102885 136 115 120
-0.103998 -0.092586 -0.107407 78 61 85
-0.100041 -0.085348 -0.118622 66 52 64
-0.119710 -0.092577 -0.126973 127 102 112
-0.099398 -0.096719 -0.125971 131 117 141
-0.125380 -0.093713 -0.126593 72 56 80
-0.103995 -0.092807 -0.103995 68 46 61
-0.108135 -0.092074 -0.130780 133 107 126
-0.106417 -0.092778 -0.106131 124 105 121
-0.122538 -0.090954 -0.102344 60 43 55
-0.101454 -0.095708 -0.110111 60 43 55
-0.108326 -0.089376 -0.180335 80 65 96
-0.108442 -0.092369 -0.107143 132 115 138
-0.107918 -0.086934 -0.129913 121 104 127
-0.108708 -0.086943 -0.103433 52 46 67
-0.110237 -0.086953 -0.102079 52 46 67
-0.102101 -0.096249 -0.183119 87 68 84
-0.176840 -0.097302 -0.176840 124 109 121
-0.118837 -0.093127 -0.130099 55 41 53
-0.176738 -0.097937 -0.112079 77 60 76
-0.105942 -0.085705 -0.108417 78 58 72
-0.106490 -0.087828 -0.131170 130 112 136
-0.122684 -0.086960 -0.111771 79 59 75
-0.120440 -0.090998 -0.120865 79 59 72
-0.106758 -0.088083 -0.121903 79 59 72
-0.180643 -0.099030 -0.132075 121 97 116
-0.104779 -0.096216 -0.180529 40 30 39
-0.122013 -0.087564 -0.121294 40 30 39
-0.109952 -0.093229 -0.108508 58 45 61
-0.124526 -0.081714 -0.123724 133 112 132
-0.137018 -0.092895 -0.137032 62 50 72
-0.107543 -0.095063 -0.107659 62 50 72
-0.178271 -0.095495 -0.121468 117 99 124
-0.180335 -0.096391 -0.131365 140 122 145
-0.130990 -0.093026 -0.121008 72 57 73
-0.106786 -0.097459 -0.106912 79 61 76
-0.134828 -0.091493 -0.122853 71 61 75
-0.122568 -0.084959 -0.121261 91 71 76
-0.109143 -0.094785 -0.183073 83 62 76
-0.122429 -0.091564 -0.123458 129 104 108
-0.121641 -0.090342 -0.121439 55 36 50
-0.137873 -0.094063 -0.178538 58 47 65
-0.124497 -0.084191 -0.127185 123 108 136
-0.122626 -0.091705 -0.109195 64 47 59
-0.122507 -0.090477 -0.125751 64 47 59
-0.122514 -0.090628 -0.111699 85 68 80
-0.110321 -0.092018 -0.127790 58 47 67
-0.110690 -0.088437 -0.126866 52 39 56
-0.126982 -0.090480 -0.110688 52 39 56
-0.138342 -0.087817 -0.137677 139 122 146
-0.179244 -0.097378 -0.179252 124 104 128
-0.129357 -0.090585 -0.130789 84 66 94
-0.178848 -0.094218 -0.178848 84 66 94
-0.130524 -0.089010 -0.111053 71 58 64
-0.137315 -0.092227 -0.128205 127 108 125
-0.179262 -0.097825 -0.130086 78 60 83
-0.128702 -0.085209 -0.129070 139 114 125
-0.128722 -0.082117 -0.128706 67 57 73
-0.178297 -0.095763 -0.130604 64 50 71
-0.129212 -0.085843 -0.130181 144 121 138
-0.129556 -0.091791 -0.129366 50 43 69
-0.129231 -0.088031 -0.124145 133 115 126
-0.129727 -0.084407 -0.128965 52 32 46
-0.111712 -0.097653 -0.128446 82 62 89
-0.124423 -0.093967 -0.128932 82 62 89
-0.132103 -0.090022 -0.130164 120 98 122
-0.178597 -0.096502 -0.179474 134 114 130
-0.178631 -0.096961 -0.178004 133 114 132
-0.177757 -0.091439 -0.142622 70 51 72
-0.128655 -0.091187 -0.129174 57 43 50
-0.130637 -0.083010 -0.128646 57 43 50
-0.132477 -0.084464 -0.177628 46 39 55
-0.129209 -0.090680 -0.178635 69 57 70
-0.178568 -0.092810 -0.178739 134 110 133
-0.128279 -0.081831 -0.128272 62 49 69
-0.128934 -0.088276 -0.132897 130 114 135
-0.127739 -0.092887 -0.128394 74 60 82
-0.132355 -0.091250 -0.113571 74 60 82
-0.113627 -0.097477 -0.132220 120 106 131
-0.128313 -0.093434 -0.128238 75 54 75
-0.129086 -0.083295 -0.139710 85 68 87
-0.114745 -0.093813 -0.114310 73 57 69
-0.133402 -0.085958 -0.137767 74 65 92
-0.140931 -0.085674 -0.138219 61 51 74
-0.178116 -0.092656 -0.138999 125 106 125
-0.129354 -0.091035 -0.138457 55 45 63
-0.129355 -0.093139 -0.129553 54 35 50
-0.128515 -0.090970 -0.128517 54 35 50
-0.130531 -0.093339 -0.130340 54 35 50
-0.140496 -0.091462 -0.177724 142 119 137
-0.178048 -0.094630 -0.129879 61 48 66
-0.136328 -0.090823 -0.131283 83 71 94
-0.139114 -0.086854 -0.138374 132 111 126
-0.137488 -0.083621 -0.129493 63 51 70
-0.137374 -0.090566 -0.138037 63 51 70
-0.131533 -0.093869 -0.176857 129 112 124
-0.176857 -0.095152 -0.130037 94 75 102
-0.130037 -0.089465 -0.141046 60 50 67
-0.135693 -0.089761 -0.130142 78 57 81
-0.128829 -0.090951 -0.137682 39 31 46
-0.139602 -0.083285 -0.129804 57 44 60
-0.114420 -0.097541 -0.144411 123 103 127
-0.131262 -0.081417 -0.134197 130 115 139
-0.115385 -0.098095 -0.139430 131 111 127
-0.116636 -0.086270 -0.138506 67 57 78
-0.132504 -0.083466 -0.130598 122 107 133
-0.135240 -0.084105 -0.136638 79 63 88
-0.137721 -0.090357 -0.130787 79 63 88
-0.130385 -0.091817 -0.179374 136 120 138
-0.141828 -0.091836 -0.133192 136 120 138
-0.133249 -0.090215 -0.138658 75 59 80
-0.115232 -0.097554 -0.137619 58 48 64
-0.137619 -0.089437 -0.137959 68 56 63
-0.132690 -0.087059 -0.142148 134 115 131
-0.139202 -0.089507 -0.142480 77 51 65
-0.135970 -0.088079 -0.116648 80 64 73
-0.116086 -0.098776 -0.133509 107 89 107
-0.175956 -0.093929 -0.176115 60 48 66
-0.131842 -0.081741 -0.134756 64 50 72
-0.132857 -0.080091 -0.130911 125 107 125
-0.134825 -0.089854 -0.138222 84 63 85
-0.132603 -0.089536 -0.138791 61 40 51
-0.130673 -0.091080 -0.132018 127 111 133
-0.135160 -0.089717 -0.137968 131 109 126
-0.132243 -0.083525 -0.131789 131 109 126
-0.143086 -0.091401 -0.134827 149 124 136
-0.135382 -0.085600 -0.135606 39 29 37
-0.138186 -0.089418 -0.134837 133 121 140
-0.132797 -0.090670 -0.138247 133 121 140
-0.133019 -0.089975 -0.133363 59 47 62
-0.117640 -0.098482 -0.137932 132 115 134
-0.132817 -0.089463 -0.139311 46 38 49
-0.134972 -0.091154 -0.134937 81 62 79
-0.138027 -0.089626 -0.134800 82 63 78
-0.132886 -0.088066 -0.132754 82 63 78
-0.132993 -0.084441 -0.133359 88 63 73
-0.132620 -0.093841 -0.133622 56 49 69
-0.130383 -0.090358 -0.139020 128 110 131
-0.134388 -0.089381 -0.128768 139 120 137
-0.138276 -0.090518 -0.134158 77 66 88
-0.120387 -0.089706 -0.135534 131 113 128
-0.129187 -0.095841 -0.133148 60 49 66
-0.132571 -0.091837 -0.160100 80 64 83
-0.120755 -0.089874 -0.119868 128 107 127
-0.135063 -0.089279 -0.135176 77 65 82
-0.143575 -0.091169 -0.138739 152 126 139
-0.121296 -0.086358 -0.132343 120 107 131
-0.138556 -0.088866 -0.139453 133 121 151
-0.121271 -0.091292 -0.172419 63 48 68
-0.133398 -0.092296 -0.120992 62 53 61
-0.135196 -0.090896 -0.129273 72 59 80
-0.132969 -0.090018 -0.144346 71 56 78
-0.134651 -0.086720 -0.122006 78 60 74
-0.122006 -0.092694 -0.140925 111 99 114
-0.135533 -0.085801 -0.135522 97 86 98
-0.121774 -0.091928 -0.122083 50 36 49
-0.138067 -0.090230 -0.121583 122 105 115
-0.120824 -0.097382 -0.135518 29 17 14
-0.138894 -0.082706 -0.121379 102 93 103
-0.130600 -0.086122 -0.138946 67 49 66
-0.141983 -0.090664 -0.169982 138 111 111
-0.122208 -0.096690 -0.136300 60 47 64
-0.146023 -0.083622 -0.137018 123 104 124
-0.136265 -0.090895 -0.136955 252 184 165
-0.134792 -0.092178 -0.122303 126 111 131
-0.137639 -0.089490 -0.136217 89 66 93
-0.122816 -0.096655 -0.137424 63 50 72
-0.137117 -0.090153 -0.122183 126 109 131
-0.138147 -0.080290 -0.122294 60 43 58
-0.122934 -0.096989 -0.145576 39 22 18
-0.136670 -0.090677 -0.137407 131 112 133
-0.139024 -0.086837 -0.136981 125 114 137
-0.132261 -0.087445 -0.131846 72 61 85
-0.132008 -0.091502 -0.122998 115 103 127
-0.167517 -0.091103 -0.134892 39 23 16
-0.138531 -0.083090 -0.123259 39 23 16
-0.138733 -0.082065 -0.137863 131 112 101
-0.132361 -0.092111 -0.139283 140 124 130
-0.138178 -0.087261 -0.123788 65 48 65
-0.140310 -0.081809 -0.138242 63 49 70
-0.137937 -0.085515 -0.138250 63 49 70
-0.138242 -0.084623 -0.138571 38 21 16
-0.166692 -0.091021 -0.138059 117 104 126
-0.140108 -0.085630 -0.147615 68 47 64
-0.138863 -0.077741 -0.137037 66 61 60
-0.141105 -0.078354 -0.138419 254 185 164
-0.147345 -0.081382 -0.139759 139 123 134
-0.165106 -0.086716 -0.138202 28 16 12
-0.136428 -0.081304 -0.139264 21 15 10
-0.138172 -0.087167 -0.122321 110 87 85
-0.139768 -0.080646 -0.139935 97 76 74
-0.139959 -0.081329 -0.136769 89 53 62
-0.138801 -0.087861 -0.136054 96 63 58
-0.163050 -0.092335 -0.135260 152 131 140
-0.135205 -0.080712 -0.136788 137 108 92
-0.135308 -0.079176 -0.123992 36 26 26
-0.160629 -0.091144 -0.146855 36 26 26
-0.147864 -0.088273 -0.149071 111 76 72
-0.123718 -0.090675 -0.147219 162 116 103
-0.149061 -0.079926 -0.135132 173 124 113
-0.137309 -0.078520 -0.137256 111 73 69
-0.136205 -0.077399 -0.138593 97 64 59
-0.121517 -0.098527 -0.144435 77 56 51
-0.119784 -0.097739 -0.146633 128 98 78
-0.120222 -0.099644 -0.133928 179 140 116
-0.133238 -0.079960 -0.132678 213 174 150
-0.130278 -0.089196 -0.150356 80 44 34
-0.132063 -0.085092 -0.133221 80 44 34
-0.133940 -0.081973 -0.132943 213 174 147
-0.143880 -0.083261 -0.120653 224 182 164
-0.143556 -0.083220 -0.130141 177 128 118
-0.133005 -0.082678 -0.148666 174 126 116
-0.130412 -0.088978 -0.142981 177 132 122
-0.142495 -0.086979 -0.149587 177 132 122
-0.671540 -0.705331 -0.674611 133 113 102
-0.675496 -0.701985 -0.675318 66 47 37
-0.675340 -0.693843 -0.675519 138 127 119
-0.675342 -0.694649 -0.675466 49 30 24
-0.675488 -0.692368 -0.675493 145 109 95
-0.675719 -0.675066 -0.675762 143 109 93
-0.675676 -0.699896 -0.675599 142 106 92
-0.675655 -0.694369 -0.675640 154 115 100
-0.671030 -0.689252 -0.675751 154 115 100
-0.675896 -0.695520 -0.675938 127 92 82
-0.675899 -0.688950 -0.676149 77 53 42
-0.676359 -0.680930 -0.676281 151 107 98
-0.676503 -0.680656 -0.676680 53 26 19
-0.677346 -0.701453 -0.677495 53 31 29
-0.677492 -0.695328 -0.677755 95 51 37
-0.677617 -0.699889 -0.677856 93 53 39
-0.677670 -0.698268 -0.677723 148 107 99
-0.677961 -0.699546 -0.677833 57 33 31
-0.678164 -0.692725 -0.678133 60 30 16
-0.678001 -0.697694 -0.678249 163 123 112
-0.678069 -0.694361 -0.678099 89 49 33
-0.678075 -0.696118 -0.678163 156 115 105
-0.678259 -0.696589 -0.678365 165 123 111
-0.678362 -0.692893 -0.678646 191 146 130
-0.678599 -0.697400 -0.678683 89 40 32
-0.678753 -0.687369 -0.678847 100 49 32
-0.678830 -0.701559 -0.678763 47 33 28
-0.678860 -0.701019 -0.679156 58 45 47
-0.678925 -0.680344 -0.678920 205 162 145
-0.678903 -0.698356 -0.678928 101 72 77
-0.678973 -0.697488 -0.679236 197 158 144
-0.679344 -0.664759 -0.679402 119 103 113
-0.679156 -0.693382 -0.679355 119 103 113
-0.679508 -0.691613 -0.679634 118 86 74
-0.679365 -0.698730 -0.679675 116 87 73
-0.679906 -0.698318 -0.679824 204 162 144
-0.680238 -0.673890 -0.680394 220 171 155
-0.680416 -0.693008 -0.680312 211 166 150
-0.680546 -0.688504 -0.680638 203 161 144
-0.680599 -0.688468 -0.680467 203 161 144
-0.680586 -0.671316 -0.680753 203 161 144
-0.680861 -0.666551 -0.680745 203 161 144
-0.681017 -0.672884 -0.680964 97 71 61
-0.680889 -0.682913 -0.680984 50 45 51
-0.680944 -0.689762 -0.681193 120 89 85
-0.681179 -0.677390 -0.681249 131 97 94
-0.681401 -0.679831 -0.681314 97 68 77
-0.681668 -0.684542 -0.681821 106 86 102
-0.681809 -0.683095 -0.682918 107 83 89
-0.682925 -0.702708 -0.681622 96 78 92
-0.681607 -0.694192 -0.681798 138 99 92
-0.682085 -0.675750 -0.681877 238 186 169
-0.681838 -0.683006 -0.681772 80 61 72
-0.683158 -0.697001 -0.683168 119 86 99
-0.682022 -0.669934 -0.681969 94 72 85
-0.681852 -0.692330 -0.682106 148 108 100
-0.682228 -0.670586 -0.682247 114 95 114
-0.682224 -0.664574 -0.682281 111 85 100
-0.682090 -0.687763 -0.682157 75 59 65
-0.682337 -0.692804 -0.682452 63 45 53
-0.682452 -0.663896 -0.682392 106 88 100
-0.682341 -0.683839 -0.682313 100 69 82
-0.682419 -0.688952 -0.682558 150 108 94
-0.682581 -0.677220 -0.683661 129 106 116
-0.682556 -0.675108 -0.682481 63 41 48
-0.682475 -0.689913 -0.682645 119 95 117
-0.682876 -0.681150 -0.682876 94 69 74
-0.682878 -0.694045 -0.682801 108 94 120
-0.683133 -0.671008 -0.683061 121 105 114
-0.683107 -0.669532 -0.683076 56 48 46
-0.683100 -0.670709 -0.683027 128 101 110
-0.682877 -0.692787 -0.683101 81 64 72
-0.682981 -0.688518 -0.682990 84 66 85
-0.683031 -0.687756 -0.683091 85 67 81
-0.683401 -0.675434 -0.683127 85 67 81
-0.683276 -0.695588 -0.683331 143 117 130
-0.683422 -0.684972 -0.684671 65 50 63
-0.684579 -0.701039 -0.683575 73 56 74
-0.683693 -0.681538 -0.683627 67 50 59
-0.683682 -0.683896 -0.683877 67 50 59
-0.683788 -0.690001 -0.684055 73 56 71
-0.685465 -0.704106 -0.684035 62 49 67
-0.685202 -0.700273 -0.684034 123 105 122
-0.684063 -0.681142 -0.684157 68 57 70
-0.684251 -0.677320 -0.684229 78 58 78
-0.684449 -0.664928 -0.684368 76 56 65
-0.684317 -0.687439 -0.684385 76 56 65
-0.684602 -0.667455 -0.684600 81 62 69
-0.684649 -0.664691 -0.684623 78 62 70
-0.685673 -0.702350 -0.685734 118 102 133
-0.684754 -0.664801 -0.684624 129 106 125
-0.686110 -0.701557 -0.686118 69 54 74
-0.684839 -0.669476 -0.684839 69 54 74
-0.684884 -0.668374 -0.685027 67 53 63
-0.684894 -0.678895 -0.685003 60 43 48
-0.685028 -0.668963 -0.686082 89 65 77
-0.686098 -0.700045 -0.685261 124 101 118
-0.685067 -0.682167 -0.685150 60 44 80
-0.685218 -0.683673 -0.685386 60 44 80
-0.685257 -0.686732 -0.685314 68 52 63
-0.685353 -0.684179 -0.685496 68 52 63
-0.685478 -0.685459 -0.685656 88 72 84
-0.685666 -0.672874 -0.685850 119 104 128
-0.685833 -0.661964 -0.685762 70 49 59
-0.685752 -0.669701 -0.685774 130 104 118
-0.685735 -0.682424 -0.686030 129 108 119
-0.685876 -0.679890 -0.685936 55 42 84
-0.686127 -0.693919 -0.685981 55 42 84
-0.686048 -0.670756 -0.686067 137 118 136
-0.686084 -0.667892 -0.686253 60 49 66
-0.686037 -0.683689 -0.686189 147 111 104
-0.686214 -0.673792 -0.686290 128 109 126
-0.686415 -0.691049 -0.686365 128 109 126
-0.686318 -0.686146 -0.686643 55 41 57
-0.686460 -0.683134 -0.686459 74 57 70
-0.686508 -0.681011 -0.686528 56 42 54
-0.686829 -0.689757 -0.686803 43 25 20
-0.686822 -0.691568 -0.686781 47 27 21
-0.686835 -0.683662 -0.686703 47 27 21
-0.686713 -0.680691 -0.686886 92 63 87
-0.686821 -0.678961 -0.686935 92 63 87
-0.687129 -0.668901 -0.687083 87 79 99
-0.687295 -0.695628 -0.687313 67 50 63
-0.687232 -0.669453 -0.687265 67 50 63
-0.687341 -0.666584 -0.688261 244 175 158
-0.687397 -0.673313 -0.687388 54 37 50
-0.687445 -0.690085 -0.687417 75 66 83
-0.687404 -0.672402 -0.687533 54 40 69
-0.687396 -0.678408 -0.687683 120 101 122
-0.687679 -0.684623 -0.687707 80 62 73
-0.687617 -0.672989 -0.687559 248 179 162
-0.688593 -0.704750 -0.687571 77 54 61
-0.687649 -0.669771 -0.687661 47 39 55
-0.687595 -0.681464 -0.687810 43 24 17
-0.687859 -0.694743 -0.687734 43 24 17
-0.687704 -0.678886 -0.687833 70 55 67
-0.687894 -0.667350 -0.687902 87 66 88
-0.687847 -0.676774 -0.687913 72 56 70
-0.688103 -0.692441 -0.688862 129 109 126
-0.688053 -0.695123 -0.688109 142 117 129
-0.688080 -0.696235 -0.688964 75 60 72
-0.688964 -0.704051 -0.688127 75 60 72
-0.688301 -0.696732 -0.688160 58 44 50
-0.688369 -0.691028 -0.688310 61 51 72
-0.688181 -0.681883 -0.688248 150 108 106
-0.688280 -0.674291 -0.689295 40 22 16
-0.688461 -0.695514 -0.688516 54 41 56
-0.688565 -0.694038 -0.688444 66 41 48
-0.688458 -0.669743 -0.688478 78 62 76
-0.688432 -0.678419 -0.688498 88 53 55
-0.688515 -0.676242 -0.688571 66 46 56
-0.688562 -0.678929 -0.688647 137 117 136
-0.688796 -0.693282 -0.688810 65 48 63
-0.688888 -0.663983 -0.688886 142 123 114
-0.689028 -0.689703 -0.689006 142 123 114
-0.689132 -0.664081 -0.689099 63 44 51
-0.689086 -0.681605 -0.689114 65 55 80
-0.689149 -0.679374 -0.689253 77 61 83
-0.689514 -0.682018 -0.689640 63 45 54
-0.689793 -0.689505 -0.689643 80 58 70
-0.689682 -0.691857 -0.689719 130 108 119
-0.689899 -0.697599 -0.689913 66 54 69
-0.689854 -0.667091 -0.689875 54 37 49
-0.690670 -0.703109 -0.689846 127 107 119
-0.689851 -0.672869 -0.689899 52 39 66
-0.689802 -0.683577 -0.689941 78 61 76
-0.690070 -0.678852 -0.689974 78 61 76
-0.689942 -0.675309 -0.689986 60 48 56
-0.690014 -0.672686 -0.690164 60 48 56
-0.690168 -0.689477 -0.691001 63 51 65
-0.690177 -0.675153 -0.690328 76 59 74
-0.690414 -0.686162 -0.690425 81 56 61
-0.690425 -0.685160 -0.690450 66 53 62
-0.691260 -0.703880 -0.691260 66 53 62
-0.690858 -0.674844 -0.690774 129 108 129
-0.690732 -0.687181 -0.690731 70 59 81
-0.690816 -0.664167 -0.690803 78 61 74
-0.690994 -0.689743 -0.691025 78 61 74
-0.691034 -0.684500 -0.691133 90 69 106
-0.691116 -0.685100 -0.691150 90 69 106
-0.691225 -0.666744 -0.691287 76 52 70
-0.691288 -0.694535 -0.691340 51 40 51
-0.691422 -0.695141 -0.691405 255 221 206
-0.691421 -0.691164 -0.692223 255 221 206
-0.691425 -0.689824 -0.691497 71 52 61
-0.691585 -0.682055 -0.691704 71 52 61
-0.691591 -0.687681 -0.691657 50 43 64
-0.692415 -0.704793 -0.691703 41 34 50
-0.691718 -0.689006 -0.691979 63 49 61
-0.691786 -0.685340 -0.691806 64 55 76
-0.692692 -0.702086 -0.692756 64 55 76
-0.692156 -0.697276 -0.692840 57 42 74
-0.692838 -0.698723 -0.692865 52 37 69
-0.692932 -0.704845 -0.692411 41 40 48
-0.692330 -0.665283 -0.693043 53 40 53
-0.692487 -0.670342 -0.692520 83 61 77
-0.692600 -0.697355 -0.692536 128 105 118
-0.692566 -0.686834 -0.692703 78 57 74
-0.692598 -0.690952 -0.692768 119 99 122
-0.692798 -0.672046 -0.692827 78 55 72
-0.692710 -0.684910 -0.692981 78 55 72
-0.692931 -0.673220 -0.692828 125 103 123
-0.692908 -0.697113 -0.692901 41 34 42
-0.692858 -0.663253 -0.692865 70 55 74
-0.692990 -0.672105 -0.692888 70 55 74
-0.693079 -0.678862 -0.693066 81 69 112
-0.693004 -0.663658 -0.693138 137 117 136
-0.693045 -0.686605 -0.693027 65 46 57
-0.693204 -0.675732 -0.693217 76 60 80
-0.693287 -0.678521 -0.693268 106 89 108
-0.693225 -0.684441 -0.693308 83 60 75
-0.693280 -0.681648 -0.693279 40 34 59
-0.693288 -0.686077 -0.693408 68 55 74
-0.693471 -0.678726 -0.693402 74 60 77
-0.693487 -0.691966 -0.693483 34 30 32
-0.693582 -0.667173 -0.693607 56 47 68
-0.694037 -0.699807 -0.693603 56 47 68
-0.693545 -0.678475 -0.693511 51 43 55
-0.693518 -0.685620 -0.693580 86 72 90
-0.693589 -0.690284 -0.694109 116 99 153
-0.693728 -0.677440 -0.693735 60 44 59
-0.693728 -0.689472 -0.693802 55 39 50
-0.693824 -0.681022 -0.693859 44 36 60
-0.693887 -0.696132 -0.693960 44 36 60
-0.694441 -0.704652 -0.694041 53 53 77
-0.694041 -0.674473 -0.694042 121 99 120
-0.694132 -0.685753 -0.694120 35 29 42
-0.694172 -0.683612 -0.694272 91 79 130
-0.694594 -0.705199 -0.694594 46 36 50
-0.694200 -0.690468 -0.694200 46 36 50
-0.694235 -0.682289 -0.694313 46 36 50
-0.694256 -0.675644 -0.694298 55 47 70
-0.694307 -0.685116 -0.694391 74 69 104
