ply
		format ascii 1.0
		element vertex 2637
		property float x
		property float y
		property float z
		property uchar blue
		property uchar green
		property uchar red
		end_header
-2.138098 3.327313 8.972882 30 31 65
-4.211991 -2.174611 9.257496 93 78 129
-1.969777 3.111191 8.241312 134 156 170
-2.405896 1.385490 10.932851 104 115 132
-2.000594 3.161201 8.379897 24 22 50
-2.880942 0.879874 10.729027 24 22 50
-1.183364 1.867342 4.986214 61 47 82
1.195244 0.269983 9.662344 43 54 83
-1.986742 3.143585 8.378995 131 142 155
-2.498725 -2.264988 10.238768 131 142 155
-1.989138 3.191604 8.483387 101 110 123
-3.054361 -1.223827 10.221094 133 165 181
-1.977122 3.198687 8.409704 11 27 49
-3.242392 1.706314 10.857943 137 117 131
-1.617046 2.647071 6.973467 17 34 62
-0.520287 1.730490 10.794072 33 27 57
-1.931050 3.178250 8.354115 69 55 75
-3.148408 1.711606 10.883480 137 150 161
-2.028894 3.350565 8.782285 55 44 82
-4.562754 1.236173 9.958382 23 20 32
-1.899221 3.143115 8.234251 31 31 61
-2.776438 1.763493 10.974677 31 31 61
-2.047355 3.380040 8.907959 76 76 97
-4.397431 -1.104632 9.261057 131 157 173
-2.046668 3.386309 8.903432 16 18 39
-4.422221 -0.830296 9.311373 19 19 47
-1.109261 1.873217 4.907380 19 19 47
1.231465 2.433257 9.798644 17 17 37
-1.143932 1.928355 5.094103 92 82 135
0.271867 -0.957585 10.179925 92 82 135
-1.143932 1.928355 5.094103 77 64 113
0.271867 -0.957585 10.179925 146 161 173
-1.716170 2.907330 7.642812 134 156 174
-1.130581 -1.707713 10.493381 33 27 74
-1.561037 2.672675 6.964289 80 78 101
-0.467218 1.989165 10.877584 161 186 198
-1.136562 1.928919 5.099154 45 28 44
0.604416 -2.186536 9.905073 27 24 46
-1.812559 3.121499 8.098037 62 51 107
-2.483495 2.425230 11.173109 63 82 104
-1.908852 3.307375 8.574028 96 80 132
-4.459552 2.244488 10.498323 66 57 80
-1.827775 3.210548 8.392114 138 152 169
-3.325333 -1.651111 10.013752 76 74 88
-1.848735 3.299784 8.536704 25 23 44
-4.444622 1.762825 10.284830 118 140 156
-1.486420 2.644119 6.922396 48 43 53
-0.226839 -2.317021 10.319017 189 201 206
-1.592899 2.863551 7.396063 202 193 195
-1.150172 2.486516 11.123524 23 21 49
-1.746738 3.139053 8.132784 32 27 47
-2.635313 0.523664 10.721921 95 95 112
-1.606120 2.909178 7.542862 146 118 126
-1.293329 0.538703 10.853573 42 39 74
-1.601848 2.911431 7.510760 96 79 130
-1.328789 2.445537 11.176953 158 181 197
-1.804543 3.305552 8.518070 92 79 128
-4.561438 1.784146 10.193148 45 36 82
-1.571020 2.886504 7.449357 34 27 57
-1.096655 1.982625 11.025105 47 38 52
-1.040878 1.902397 4.994244 70 63 102
1.109430 -2.661484 9.625680 30 26 37
-1.431655 2.642677 6.877042 30 26 37
-0.305233 -1.993868 10.395574 122 105 159
-1.794316 3.344175 8.699635 33 25 50
-4.333950 -2.729567 8.988097 33 25 50
-1.027878 1.924991 4.992143 44 37 54
1.110145 -0.210857 9.836764 143 157 176
-1.533172 2.908148 7.440661 129 144 159
-1.330320 2.023612 11.115586 132 157 171
-1.531683 2.908957 7.494139 42 31 32
-2.319410 -2.005812 10.460760 32 23 51
-1.685309 3.219560 8.277148 44 43 74
-3.362901 -1.661178 9.999280 28 22 35
-1.706295 3.268078 8.386969 54 46 96
-3.840557 -0.896632 9.826999 33 31 74
-1.479714 2.863937 7.286706 74 63 117
-4.155146 2.823373 11.114204 67 48 85
-1.467096 2.855420 7.349903 113 104 68
-3.671917 -1.994451 9.942430 23 23 45
-1.321558 2.588267 6.619623 112 91 138
-0.046998 0.879483 10.682080 91 79 133
-1.321457 2.588694 6.618664 45 35 68
-0.046969 0.923894 10.687415 85 70 119
-1.681377 3.301609 8.469756 98 81 132
-4.042102 -2.528462 9.323355 119 102 60
-1.679881 3.304770 8.457843 42 33 74
-4.063421 -2.088752 9.365494 39 30 70
-1.001615 1.963079 5.060513 43 33 39
0.260753 -2.314949 10.160277 45 37 75
-1.484313 2.950478 7.474492 95 81 131
-1.709425 2.383789 11.243272 23 23 34
-0.982658 1.958934 4.994661 35 35 70
0.919730 1.687254 10.145762 23 23 34
-1.348569 2.721211 6.908295 54 39 22
-0.599541 1.277754 10.885089 52 37 68
-1.351113 2.721365 6.931729 49 36 79
-0.590050 -0.221477 10.684471 32 27 59
-1.465247 2.956772 7.510156 83 75 130
-2.837973 0.227635 10.698966 82 71 117
-1.659668 3.343692 8.529938 52 45 105
-4.409133 -1.705306 9.051681 52 45 105
-1.658202 3.343727 8.518108 52 45 105
-4.453838 -1.134470 9.137572 117 130 155
-1.285049 2.660795 6.728911 62 46 88
-0.460363 0.895529 10.837255 100 84 131
-1.403085 2.933831 7.394603 38 30 66
-1.725153 1.333802 11.056523 103 119 135
-1.398001 2.948736 7.410512 46 39 76
-2.175604 2.350164 11.282048 88 74 129
-1.407943 2.959654 7.501068 109 91 145
-3.279701 -1.383533 10.204173 114 100 153
-1.567418 3.309491 8.338983 108 96 148
-4.334137 -0.159716 9.565336 176 193 198
-0.923995 1.951693 4.916700 90 78 134
1.257582 2.649728 9.987469 36 28 67
-1.381925 2.935103 7.429099 36 28 67
-1.936733 -2.135004 10.486439 52 39 82
-1.368149 2.913310 7.365442 42 28 60
-1.213494 -2.081352 10.499171 102 89 141
-1.390061 2.973191 7.470691 62 46 82
-3.306346 0.099279 10.515749 102 87 135
-1.394460 2.992831 7.477055 37 29 62
-3.666897 2.840392 11.227307 111 92 139
-1.219690 2.604660 6.582911 38 30 63
-0.086721 -1.731829 10.441070 32 27 65
-0.925505 1.996009 5.052823 90 72 110
0.773843 -0.597198 10.150185 26 21 53
-1.339573 2.922818 7.292501 49 40 62
-1.606302 2.878006 11.367437 91 80 134
-1.294493 2.860836 7.138614 62 46 80
-4.250861 2.746706 11.040307 87 75 130
-1.329490 2.950841 7.417992 33 26 67
-1.820093 -1.338306 10.621010 65 58 104
-1.495336 3.322562 8.342211 65 58 104
-4.331469 -1.228328 9.212869 111 94 121
-1.326411 2.944965 7.429634 29 25 59
-1.630896 -3.210965 10.401420 41 32 69
-1.288787 2.878083 7.231433 41 32 69
-3.625449 -1.904090 9.963684 25 24 55
-1.310306 2.970144 7.421914 46 37 80
-2.180361 -0.240920 10.767551 79 70 114
-1.430994 3.280680 8.144873 81 59 107
-4.267444 1.120807 10.091575 23 21 53
-1.447814 3.322690 8.247879 115 103 156
-4.592849 1.077173 9.738877 35 27 60
-1.234778 2.859500 7.108769 32 30 81
-4.082062 0.806490 10.411896 70 51 67
-1.418144 3.324622 8.219052 64 49 89
-4.897028 2.052737 9.932972 47 40 56
-1.221056 2.878663 7.166124 59 50 84
-3.060948 -0.572205 10.477296 59 50 84
-1.215213 2.865120 7.164649 141 116 135
-3.096024 -3.093136 10.099395 102 88 134
-1.395876 3.308725 8.229458 50 39 76
-4.241015 -1.542877 9.232548 111 93 149
-1.108252 2.658503 6.553994 15 18 43
-0.221918 2.598384 11.039436 15 18 43
-1.111227 2.657427 6.592426 18 16 25
-0.218438 0.080731 10.729169 60 52 74
-0.842780 2.020106 5.033290 74 55 72
0.918748 0.082332 10.178748 48 41 67
-0.841465 2.028276 5.029934 74 58 82
0.769292 1.580199 10.387420 49 41 65
-1.170065 2.840400 7.023127 135 114 133
-1.385787 -0.080223 10.905939 38 30 62
-1.162512 2.843383 6.929901 45 34 69
-1.464310 3.670240 11.576710 35 28 67
-0.838717 2.042772 5.038527 34 30 63
0.685660 1.541068 10.431031 65 47 77
-0.838717 2.042772 5.038527 87 74 126
0.685660 1.541068 10.431031 51 41 76
-1.157501 2.833682 6.951849 32 27 64
-1.110762 1.163868 11.073872 36 28 73
-1.356495 3.323004 8.197665 102 86 136
-4.283022 -1.786547 9.137298 132 114 133
-1.091512 2.673319 6.610355 51 43 60
-0.265364 -2.684324 10.454261 45 41 79
-1.164680 2.881135 7.083954 103 86 140
-3.127104 -0.269941 10.547938 51 39 79
-0.821371 2.034897 5.030236 35 29 60
0.977033 -0.249378 10.123228 54 45 77
-1.138943 2.834208 6.983077 54 45 77
-1.063022 -2.051788 10.619652 88 72 106
-1.152508 2.890649 7.048878 50 37 82
-3.430099 1.957600 11.006083 38 30 66
-1.149404 2.886770 7.026567 39 32 73
-4.071901 2.767906 11.080832 74 62 93
-1.151514 2.894903 7.046017 74 62 93
-3.320680 2.843414 11.321946 97 86 135
-1.151402 2.898525 7.045593 81 66 100
-3.302437 2.647344 11.254238 42 34 68
-0.817803 2.047032 5.059401 129 108 143
0.791142 -2.620013 10.027678 80 70 108
-1.115161 2.828766 6.955564 39 33 80
-0.907130 -2.738664 10.544986 38 32 63
-1.124567 2.885171 7.021842 50 43 54
-3.200492 1.647655 11.033878 47 36 71
-1.115057 2.873513 6.964706 58 47 68
-1.427052 1.620160 11.151140 58 47 68
-1.118048 2.873150 7.005224 62 55 76
-1.368653 -1.364735 10.674800 29 23 50
-1.118663 2.894794 7.008722 61 55 92
-3.389608 1.294808 10.881501 64 54 97
-1.119160 2.901079 7.014927 76 57 76
-3.356250 0.868333 10.771368 56 44 81
-1.163104 3.015697 7.310081 56 44 81
-4.208984 -0.656646 9.716640 29 33 82
-1.111021 2.901274 6.983505 45 39 86
-2.111109 2.382127 11.367867 43 40 83
-1.108762 2.904173 7.032925 83 68 101
-3.201507 -0.949182 10.392977 144 119 135
-1.279731 3.360690 8.136315 125 104 147
-4.322957 -1.838594 9.044135 82 70 122
-1.107358 2.922369 7.060110 48 41 68
-2.980031 -1.364338 10.402945 27 23 53
-1.134458 3.026064 7.290473 118 97 144
-4.231516 -0.621869 9.693346 86 63 87
-1.092681 2.917455 7.032079 98 85 140
-3.243028 -0.671523 10.424984 47 40 72
-1.059112 2.853839 6.858307 105 90 143
-0.937309 0.641985 11.004833 38 29 62
-1.068833 2.884914 6.968314 44 40 50
-1.481192 -2.086333 10.660359 44 37 65
-0.767793 2.081963 5.042500 42 37 67
0.962712 -2.190897 10.032679 25 24 58
-0.766726 2.089974 5.008950 86 71 101
0.998347 2.169927 10.361925 53 41 83
-0.767730 2.084909 5.040123 53 41 83
0.966729 -1.747273 10.068696 41 33 68
-0.773252 2.112683 5.049651 105 88 143
0.468517 2.930185 10.765681 23 20 51
-0.773556 2.111738 5.058667 117 97 143
0.464325 2.055604 10.684594 30 22 48
-0.969135 2.651253 6.339814 30 22 48
-0.033582 0.613763 10.760252 47 35 73
-1.073897 2.931535 7.047566 55 50 69
-2.839203 -2.098605 10.334310 78 62 86
-1.064926 2.919672 7.019407 42 33 62
-1.993395 -2.819813 10.475248 144 122 141
-1.056468 2.918184 6.925610 51 40 73
-1.936277 2.841859 11.502059 140 119 143
-1.068740 2.946765 7.042566 28 22 38
-2.848621 -0.990236 10.521284 46 37 66
-1.033590 2.881227 6.827112 46 37 66
-1.142684 2.884979 11.381634 32 30 45
-0.754215 2.107456 5.067923 105 90 134
0.664044 -2.152107 10.189351 42 35 60
-1.045331 2.935950 7.013244 36 31 67
-1.965053 -2.598422 10.488095 79 60 84
-0.750669 2.111556 5.031443 32 25 60
0.923691 0.847809 10.305368 50 39 71
-0.751240 2.122255 5.029218 50 39 71
0.774371 2.073689 10.497316 69 56 79
-0.749624 2.133861 5.018541 35 31 58
0.931849 1.990449 10.389544 87 73 110
-1.048577 3.021084 7.038700 50 40 71
-3.227792 2.888861 11.382939 50 40 71
-1.043656 2.998404 7.049576 43 34 66
-3.839657 -1.306329 9.898685 47 39 82
-1.030740 2.999139 7.006931 38 34 68
-2.521073 0.881617 10.963318 47 40 71
-0.992414 2.894516 6.801221 89 71 94
-0.983549 -2.642269 10.584312 48 41 68
-1.033168 3.014877 7.080089 84 68 94
-3.806851 -2.393061 9.730530 57 46 86
-1.030187 3.029952 7.029881 84 67 97
-4.027650 0.539584 10.278019 79 57 76
-0.988709 2.926570 6.822197 108 91 144
-1.028985 -2.249508 10.629130 76 65 96
-1.154749 3.424495 7.966702 60 57 89
-4.265645 -1.887739 9.094089 44 35 64
-1.154230 3.432454 7.958528 76 58 78
-4.287236 -1.549340 9.135772 107 89 136
-0.984208 2.964407 6.815068 140 126 151
-2.456223 2.470685 11.406118 71 57 77
-1.003911 3.035913 7.036563 94 81 110
-3.806179 -1.884498 9.773000 85 71 102
-1.003486 3.050966 7.035186 118 102 116
-3.192283 -1.380366 10.322394 86 67 97
-1.000255 3.050833 6.978887 79 68 102
-3.460170 2.375271 11.203462 85 62 90
-0.918119 2.791163 6.449746 88 68 93
-0.444856 -2.256523 10.603360 91 66 81
-1.119816 3.435741 7.867157 77 61 76
-4.410070 0.465974 9.641583 59 50 74
-1.117402 3.449658 7.898140 83 65 93
-4.505339 0.458622 9.505191 84 68 94
-0.955395 2.953479 6.749557 120 101 147
-1.115404 2.145030 11.335535 137 120 145
-0.913451 2.836310 6.542861 137 120 145
-1.207209 -2.118255 10.679500 108 90 136
-0.890325 2.796948 6.382253 52 40 76
-0.543889 2.778718 11.279267 60 50 91
-0.904012 2.839000 6.516607 60 50 91
-1.315991 -1.063139 10.829533 86 74 105
-0.695285 2.195333 5.021736 104 88 142
0.832227 1.974005 10.530513 77 63 95
-0.894870 2.835917 6.474133 93 65 82
-1.289277 0.596089 11.067920 53 41 68
-0.959861 3.042251 6.970475 93 69 87
-2.443144 -2.065681 10.460891 65 51 76
-0.884380 2.863602 6.494720 49 41 74
-1.406514 2.970326 11.513453 22 23 37
-0.941564 3.043975 6.972152 137 115 132
-3.988768 -2.359721 9.633127 49 48 89
-0.940013 3.053891 6.954927 49 39 68
-2.476324 -0.281506 10.790307 75 60 90
-0.943887 3.070633 7.016247 24 24 39
-2.865439 -2.408999 10.287111 24 24 39
-0.943870 3.071099 7.015862 52 44 62
-2.859342 -2.568187 10.267157 45 39 52
-0.925878 3.025224 6.905239 130 114 138
-4.048681 -1.956508 9.672803 95 73 99
-0.930773 3.052418 6.905061 66 61 90
-2.614288 1.570643 11.144631 68 51 73
-0.856968 2.805219 6.407602 81 61 84
-0.498691 -2.220646 10.647090 47 39 65
-0.674409 2.213362 5.030507 23 22 47
0.793122 2.017627 10.567733 138 118 138
-0.670457 2.206246 5.022719 68 59 82
0.928645 1.046085 10.426694 48 42 76
-0.925622 3.056765 6.934084 35 33 70
-2.630885 -0.615168 10.671062 80 58 75
-0.876735 2.901929 6.604254 113 94 143
-1.076971 -2.345766 10.656798 61 49 65
-0.909086 3.017061 6.862302 74 57 78
-3.712770 -2.147568 9.886337 66 57 85
-0.856707 2.861983 6.461252 66 57 85
-1.392210 1.636638 11.267056 82 66 91
-0.858824 2.867377 6.501286 35 32 68
-1.161986 -0.686945 10.884936 73 62 87
-0.863124 2.911534 6.532972 73 62 87
-1.191288 2.912019 11.493944 82 69 98
-0.911860 3.077791 6.952062 81 69 99
-2.560351 -0.634480 10.681990 81 69 99
-0.857470 2.902040 6.544641 67 57 67
-1.432134 -0.603627 10.885946 81 59 74
-0.852128 2.887745 6.512801 36 31 50
-1.385940 -0.603628 10.886293 77 64 85
-0.890545 3.038317 6.839310 58 49 91
-4.082296 -1.652571 9.648513 87 67 86
-0.655462 2.236778 5.053528 87 67 86
0.859010 -2.191267 10.193623 87 67 86
-0.655462 2.236778 5.053528 138 119 143
0.859010 -2.191267 10.193623 88 74 93
-0.901658 3.094522 6.910060 88 69 97
-2.643708 0.161934 10.813081 72 49 70
-0.901658 3.094522 6.910060 59 48 89
-2.643708 0.161934 10.813081 82 68 93
-0.828924 2.848329 6.361343 81 68 95
-0.453770 0.206758 10.941298 79 63 87
-0.855398 2.964931 6.617239 83 69 93
-1.503768 0.202750 10.991524 83 69 93
-0.888733 3.116589 6.894924 64 53 80
-3.233746 2.908167 11.394852 73 60 86
-0.892311 3.120624 6.979801 73 60 86
-2.907344 -2.580542 10.236035 143 118 133
-0.832873 2.914156 6.524354 83 63 77
-1.334278 -2.703568 10.640695 145 121 132
-0.824258 2.902830 6.419170 78 61 89
-1.387540 2.934761 11.516467 141 118 142
-0.879124 3.106808 6.922840 51 42 80
-2.582872 -2.452756 10.364821 72 57 81
-0.994064 3.533725 7.868136 138 117 133
-4.313334 -2.666752 8.853714 74 53 77
-0.782230 2.786849 6.210693 145 121 139
-0.025789 -2.661168 10.489960 57 49 72
-0.867112 3.108617 6.828147 68 53 79
-2.936538 2.990712 11.501847 128 108 119
-0.843093 3.022032 6.684644 68 57 79
-1.906092 -0.722198 10.825252 63 50 76
-0.980671 3.533862 7.788535 122 101 115
-4.309598 -1.873496 8.991062 63 48 64
-0.808770 2.934154 6.416765 52 37 48
-1.345085 2.313802 11.415319 52 37 48
-0.968706 3.530795 7.687844 71 55 85
-4.843369 2.565800 10.164694 63 50 57
-0.806736 2.937951 6.468753 71 57 65
-1.230014 -2.511011 10.673945 46 40 73
-0.844398 3.106366 6.752343 51 44 60
-2.233154 2.516166 11.455382 88 68 90
-0.853759 3.140298 6.858622 88 68 90
-2.725427 0.120188 10.783254 82 69 94
-0.824888 3.041408 6.613941 82 69 94
-1.892006 2.459070 11.434298 137 122 141
-0.813948 3.015483 6.542637 69 58 80
-1.539056 3.165017 11.629563 69 58 80
-0.800972 2.967981 6.501734 144 118 137
-1.354591 -2.313303 10.691010 72 61 80
-0.845268 3.137701 6.848517 141 121 141
-3.550286 -0.995820 10.173776 67 54 57
-0.846190 3.139092 6.874052 130 104 120
-3.470512 -2.519321 9.961352 66 54 84
-0.607347 2.254586 4.962675 71 57 77
1.240411 -2.344315 10.004826 138 118 132
-0.774727 2.883037 6.308854 47 40 56
-0.427871 -1.843977 10.676423 146 127 145
-0.822782 3.077021 6.724902 138 115 126
-1.962285 -2.778242 10.562221 69 59 82
-0.822650 3.078530 6.720667 66 53 73
-1.974388 -2.272260 10.621121 66 53 73
-0.787115 2.953254 6.455331 48 41 54
-1.148972 -2.707485 10.680496 60 49 67
-0.949199 3.574388 7.786678 60 49 67
-4.328641 -2.596058 8.865718 119 101 116
-0.781520 2.980730 6.504283 120 106 136
-1.265874 -3.132385 10.611351 80 70 80
-0.781520 2.980730 6.504283 69 55 75
-1.265874 -3.132385 10.611351 78 59 75
-0.779241 2.983680 6.483185 61 48 66
-1.338389 -1.479101 10.788188 140 115 133
-0.805849 3.123343 6.737393 74 61 79
-2.397449 1.177205 11.126752 135 118 124
-0.746905 2.892886 6.289974 49 35 55
-0.190070 -2.761952 10.574953 49 35 55
-0.764135 2.969772 6.418994 49 35 55
-1.210379 0.152520 11.060366 81 65 85
-0.742892 2.899434 6.269088 121 104 113
-0.449427 0.154353 10.938407 77 58 74
-0.778412 3.049701 6.571387 125 107 111
-1.768887 0.818108 11.140162 35 28 42
-0.908408 3.569672 7.676242 63 54 56
-4.583393 0.497752 9.361207 63 54 56
-0.910144 3.578517 7.718298 121 101 117
-4.373396 -1.554489 8.941474 143 118 119
-0.790246 3.112140 6.692714 140 115 127
-2.005098 0.635080 11.081388 143 119 129
-0.590474 2.328138 5.052742 143 119 129
0.646715 -2.257355 10.335925 72 61 85
-0.590498 2.330151 5.046049 82 62 79
0.649564 -1.814511 10.375055 61 49 68
-0.800411 3.169935 6.770575 136 111 117
-2.992927 2.924087 11.452433 80 65 81
-0.783814 3.117148 6.613432 80 65 81
-4.263365 3.260819 11.240782 90 62 79
-0.793084 3.163258 6.709593 145 123 128
-3.394819 3.354164 11.494328 145 123 128
-0.796598 3.174981 6.829021 86 66 89
-3.012737 -2.550189 10.186508 74 66 89
-0.760212 3.089134 6.625048 74 54 73
-1.704626 -2.725796 10.607710 53 47 70
-0.737006 3.011126 6.459958 84 60 76
-1.173329 -2.752454 10.685980 75 65 88
-0.770529 3.154068 6.732735 64 50 71
-2.407371 -0.346116 10.854671 60 46 60
-0.735598 3.015491 6.424854 139 108 116
-1.253703 0.659064 11.132006 68 53 70
-0.775214 3.204106 6.833500 76 62 78
-2.985522 -0.707461 10.494378 138 114 125
-0.767057 3.170497 6.762863 83 62 87
-3.561286 -0.687393 10.213249 61 52 67
-0.746164 3.087965 6.606622 61 52 67
-1.675516 -2.770820 10.618498 145 122 125
-0.729271 3.051529 6.456840 142 123 141
-1.355860 0.655797 11.101873 144 123 131
-0.759801 3.197916 6.736290 78 63 76
-2.927765 2.407467 11.312504 135 116 132
-0.760473 3.201788 6.763601 68 56 78
-2.815857 0.599252 10.861542 84 69 84
-0.690462 2.933588 6.225813 66 50 72
-0.281025 -1.926925 10.719565 129 114 141
-0.734420 3.138505 6.604612 61 53 75
-1.612751 1.944756 11.366726 64 49 67
-0.726854 3.126492 6.577043 143 122 145
-1.863716 1.831275 11.342345 138 101 108
-0.726586 3.126852 6.563159 60 49 70
-1.903469 3.028007 11.605546 76 63 85
-0.707192 3.059259 6.442766 135 114 136
-1.251439 0.223573 11.065849 49 34 45
-0.724768 3.149243 6.599953 80 62 80
-1.568028 1.741445 11.332329 60 48 71
-0.732836 3.185024 6.709999 109 92 101
-1.809698 -1.860627 10.672484 109 92 101
-0.700137 3.063575 6.437901 85 60 73
-1.114012 -2.788055 10.667101 127 114 139
-0.721404 3.188354 6.695554 139 113 126
-1.576654 -2.765201 10.601627 81 64 89
-0.727013 3.220148 6.657845 53 45 56
-3.049252 3.437982 11.607182 127 108 125
-0.816400 3.633830 7.575480 127 108 125
-4.354054 -1.240087 9.033862 78 63 83
-0.690001 3.095391 6.442348 69 49 64
-1.258411 0.584168 11.127353 141 116 130
-0.716445 3.218508 6.694499 92 66 83
-3.703133 0.535011 10.485414 70 57 82
-0.677935 3.065777 6.377109 79 60 76
-1.097223 0.712941 11.181842 67 49 66
-0.694216 3.152863 6.593154 67 49 66
-3.212012 -2.648610 10.100377 70 50 68
-0.694244 3.154822 6.594407 78 58 78
-3.210759 -2.688576 10.097195 136 120 106
-0.676757 3.082077 6.444550 150 129 132
-1.157378 -2.871885 10.672469 150 129 132
-0.693718 3.195134 6.583473 68 55 77
-1.584948 3.031098 11.582427 129 110 129
-0.700221 3.241318 6.680774 84 64 90
-2.308808 0.596979 11.056751 44 38 53
-0.698223 3.250133 6.685141 44 38 53
-2.823285 0.857083 10.922889 94 73 93
-0.697988 3.254247 6.667914 66 55 73
-2.901510 2.123059 11.239192 138 115 121
-0.692571 3.242038 6.651169 138 115 121
-2.412031 0.155089 10.887372 116 95 119
-0.693839 3.257816 6.690423 129 110 131
-3.911565 -1.355855 9.768235 129 110 131
-0.692942 3.254842 6.628187 69 48 59
-4.365335 2.864038 10.920314 57 48 71
-0.703437 3.329047 6.800523 58 41 61
-2.482064 -0.345692 10.733130 126 108 131
-0.655698 3.131269 6.364552 82 60 77
-1.251629 1.311179 11.267799 121 100 125
-0.672924 3.244051 6.587414 83 64 82
-1.715506 -2.807346 10.646519 127 109 120
-0.703894 3.399532 6.874355 45 33 45
-4.216141 -1.407956 9.368633 69 59 89
-0.653714 3.158875 6.394886 57 44 57
-1.153438 -1.651890 10.816166 57 44 57
-0.674276 3.265033 6.591295 134 119 122
-1.857879 -1.061265 10.825495 67 51 71
-0.755794 3.666474 7.347376 146 121 135
-4.768568 1.806790 9.862262 146 123 128
-0.667944 3.253063 6.512235 72 59 80
-4.258318 2.912439 11.095991 76 68 73
-0.693552 3.404031 6.844747 144 122 124
-4.264104 -1.308105 9.379472 75 62 77
-0.668410 3.296727 6.640143 123 103 125
-1.567756 -2.814430 10.633245 85 65 83
-0.670675 3.311566 6.669522 120 98 120
-3.491324 -2.600688 9.930419 52 47 69
-0.547046 2.731521 5.500304 52 41 52
-0.019794 -1.109466 10.750090 64 55 75
-0.734370 3.673524 7.317422 82 61 77
-4.751691 1.778775 9.851894 84 69 92
-0.734616 3.687723 7.379563 79 65 84
-4.397161 -1.342578 8.959174 159 130 144
-0.646356 3.272048 6.534087 123 109 135
-3.452723 0.534161 10.594932 64 53 77
-0.645283 3.280457 6.522981 80 67 93
-1.895915 2.165071 11.426730 74 57 79
-0.597816 3.067739 6.143544 74 57 79
-0.425444 -1.619371 10.793861 79 65 83
-0.617974 3.178428 6.361427 60 49 65
-1.155423 -1.622476 10.837513 60 49 65
-0.714615 3.678961 7.274824 71 51 57
-4.969806 2.628377 10.073836 154 122 133
-0.644888 3.336753 6.674206 145 123 138
-2.620773 -3.146969 10.374695 53 46 65
-0.615193 3.183183 6.370131 86 71 94
-1.102303 -3.267478 10.664737 51 43 63
-0.608452 3.188246 6.315553 69 56 76
-1.257481 2.443374 11.491292 69 56 76
-0.702207 3.683510 7.275674 157 131 146
-4.735864 1.538440 9.705192 61 44 55
-0.482372 2.552950 5.087991 129 109 130
0.310731 -0.764349 10.715715 60 50 70
-0.625224 3.331955 6.610790 66 52 73
-3.576535 -1.013386 10.127798 89 71 93
-0.690690 3.689905 7.295084 63 49 62
-4.463506 -0.295451 9.179447 135 114 136
-0.598560 3.286435 6.523202 128 107 131
-3.251061 -2.672673 10.115504 51 44 65
-0.624974 3.441860 6.826553 62 51 74
-4.055462 -2.470753 9.413084 57 42 53
-0.604141 3.343562 6.634303 70 53 67
-2.623656 -2.755189 10.389082 207 111 71
-0.551120 3.077322 6.100906 132 112 129
-0.435655 -1.961681 10.793928 154 128 138
-0.591332 3.320453 6.540580 84 64 87
-2.670788 1.250455 11.102960 89 69 86
-0.653953 3.674197 7.228555 77 63 86
-4.500885 0.522464 9.452168 77 63 86
-0.653788 3.676808 7.227234 107 45 40
-4.591010 1.097028 9.649006 55 43 63
-0.562373 3.183123 6.237333 54 42 59
-0.813583 2.114830 11.401065 142 125 134
-0.583013 3.314171 6.489653 81 60 77
-4.319690 1.917637 10.606624 81 60 77
-0.583023 3.316242 6.489281 70 56 68
-4.326081 1.965214 10.622871 70 56 73
-0.649563 3.702607 7.232179 70 56 73
-4.718331 1.446996 9.642436 76 64 91
-0.646217 3.697966 7.211247 76 64 91
-4.851526 2.065859 9.828468 132 110 129
-0.564778 3.245389 6.372372 132 110 129
-1.134452 -1.660590 10.852837 125 106 115
-0.640072 3.722469 7.237475 59 41 57
-4.424310 -0.297415 9.233146 59 41 57
-0.639779 3.733368 7.290650 59 49 62
-4.278509 -2.690326 8.882861 63 55 76
-0.567897 3.329291 6.484154 83 64 81
-3.350175 -1.040817 10.300314 122 102 124
-0.548509 3.266490 6.313924 88 63 79
-1.149984 2.987855 11.616460 76 68 94
-0.621729 3.725614 7.253203 70 53 66
-4.243632 -2.689382 8.961498 94 75 97
-0.581861 3.482741 6.720205 125 101 111
-4.600251 2.188389 10.386235 141 115 128
-0.543127 3.265170 6.311993 136 115 131
-1.054410 1.226270 11.298103 124 110 134
-0.527888 3.185628 6.178858 63 50 66
-0.591004 -1.574495 10.854759 88 74 102
-0.437055 2.641891 5.141850 136 115 120
0.571166 -1.541004 10.594192 78 61 85
-0.616739 3.730089 7.187767 66 52 64
-4.498478 0.039843 9.258883 127 102 112
-0.549253 3.333870 6.435217 131 117 141
-3.959976 0.045173 10.179282 72 56 80
-0.509155 3.116604 5.993806 68 46 61
-0.425104 3.126007 11.491463 133 107 126
-0.527747 3.317358 6.401709 124 105 121
-1.494083 -1.153978 10.925716 60 43 55
-0.524910 3.328704 6.442042 60 43 55
-3.278636 -2.678978 10.104969 80 65 96
-0.520450 3.324890 6.402239 132 115 138
-3.365235 -0.275699 10.478844 121 104 127
-0.522312 3.369913 6.512296 52 46 67
-3.525615 -2.525674 9.893609 52 46 67
-0.577535 3.736196 7.180586 87 68 84
-4.379866 -1.638752 8.905662 124 109 121
-0.510358 3.319541 6.364448 55 41 53
-1.455994 -0.341278 11.028629 77 60 76
-0.515509 3.355398 6.431911 78 58 72
-2.059369 -0.311825 10.986650 130 112 136
-0.569214 3.735847 7.142545 79 59 75
-4.486543 0.046819 9.268775 79 59 72
-0.507909 3.334454 6.369830 79 59 72
-1.810227 1.312836 11.318810 121 97 116
-0.507516 3.337725 6.386755 40 30 39
-3.432595 -0.011957 10.500261 40 30 39
-0.566554 3.747531 7.184749 58 45 61
-4.258989 -2.338614 8.937190 133 112 132
-0.502196 3.334273 6.326810 62 50 72
-3.038026 3.126609 11.623964 62 50 72
-0.564914 3.768280 7.165507 117 99 124
-4.445021 0.019581 9.306562 140 122 145
-0.559571 3.748264 7.127841 72 57 73
-4.495974 0.019292 9.224449 79 61 76
-0.467612 3.165274 5.995789 71 61 75
-0.449006 0.636144 11.170036 91 71 76
-0.496239 3.375592 6.395009 83 62 76
-3.427513 -0.355842 10.428082 129 104 108
-0.490786 3.364420 6.356437 55 36 50
-2.197903 1.289540 11.261626 58 47 65
-0.480909 3.324239 6.281505 123 108 136
-1.170046 1.308631 11.337248 64 47 59
-0.480570 3.358631 6.386119 64 47 59
-3.597034 -2.656206 9.914079 85 68 80
-0.503660 3.513278 6.600688 58 47 67
-4.440145 1.825195 10.331024 52 39 56
-0.503381 3.522522 6.623031 52 39 56
-4.266499 0.489587 9.917126 139 122 146
-0.503532 3.522343 6.612485 124 104 128
-4.291508 0.706124 9.976048 84 66 94
-0.527691 3.788642 7.104116 84 66 94
-4.555476 0.584792 9.381922 71 58 64
-0.380328 2.751663 5.188382 127 108 125
0.469836 0.718222 10.897162 78 60 83
-0.471860 3.429470 6.478723 139 114 125
-3.521938 -3.045289 9.865595 67 57 73
-0.463241 3.363806 6.291127 64 50 71
-1.674658 2.521170 11.605398 144 121 138
-0.518795 3.794243 7.082073 50 43 69
-4.521168 0.095982 9.192549 133 115 126
-0.460234 3.371302 6.275280 52 32 46
-1.536958 2.995353 11.668350 82 62 89
-0.447943 3.377225 6.325204 82 62 89
-3.204269 -1.136729 10.437030 120 98 122
-0.469097 3.537616 6.583640 134 114 130
-4.240932 0.506456 9.930751 133 114 132
-0.435490 3.365772 6.247329 70 51 72
-1.215266 0.105372 11.139999 57 43 50
-0.438526 3.396205 6.296704 57 43 50
-1.865441 0.879454 11.228314 46 39 55
-0.489937 3.805479 7.038282 69 57 70
-4.547580 0.103158 9.162203 134 110 133
-0.433144 3.360091 6.190095 62 49 69
-1.024852 3.256011 11.694568 130 114 135
-0.436959 3.416758 6.281803 74 60 82
-3.476518 3.100432 11.478252 74 60 82
-0.436588 3.422440 6.297192 120 106 131
-3.348705 1.661531 11.035069 75 54 75
-0.432952 3.414812 6.282666 85 68 87
-3.532239 1.111592 10.776091 73 57 69
-0.432643 3.421772 6.279386 74 65 92
-3.660215 2.005378 11.010312 61 51 74
-0.428512 3.417897 6.261963 125 106 125
-3.378619 3.040796 11.515327 55 45 63
-0.348534 2.819800 5.188085 54 35 50
0.784403 1.245190 10.841439 54 35 50
-0.420806 3.448537 6.276566 54 35 50
-3.604980 1.652548 10.921430 142 119 137
-0.407095 3.415401 6.173428 61 48 66
-1.003708 1.776304 11.455045 83 71 94
-0.389318 3.272380 5.833694 132 111 126
-0.463098 3.617138 11.684159 63 51 70
-0.413683 3.493654 6.203438 63 51 70
-2.255228 4.002071 11.973313 129 112 124
-0.409833 3.531462 6.293739 94 75 102
-3.539336 2.997247 11.452732 60 50 67
-0.398508 3.440875 6.101332 78 57 81
-2.686774 3.708874 11.870604 39 31 46
-0.402612 3.520077 6.216047 57 44 60
-3.355566 3.596461 11.724663 123 103 127
-0.373428 3.310447 5.827695 130 115 139
-0.498260 3.596211 11.696442 131 111 127
-0.386780 3.482424 6.157883 67 57 78
-1.187494 1.775126 11.455245 122 107 133
-0.321560 2.935036 5.192858 79 63 88
0.892447 3.001656 11.053489 79 63 88
-0.385577 3.530964 6.224171 136 120 138
-2.806215 3.054985 11.634875 136 120 138
-0.388197 3.590660 6.299505 75 59 80
-3.425105 2.904143 11.406716 58 48 64
-0.381318 3.527745 6.162059 68 56 63
-4.455207 3.427311 11.162774 134 115 131
-0.379437 3.546092 6.217781 77 51 65
-4.202089 1.626935 10.502698 80 64 73
-0.415436 4.005208 7.044169 107 89 107
-4.278120 -2.109341 8.889244 60 48 66
-0.366882 3.520634 6.136806 64 50 72
-2.689719 3.035139 11.675231 125 107 125
-0.365391 3.525004 6.124411 84 63 85
-1.216124 3.048601 11.758854 61 40 51
-0.365468 3.525891 6.122491 127 111 133
-1.217997 3.150364 11.780354 131 109 126
-0.375180 3.641936 6.249391 131 109 126
-3.654374 3.605941 11.608728 149 124 136
-0.361770 3.575619 6.163577 39 29 37
-1.489662 0.448218 11.230429 133 121 140
-0.368769 3.658674 6.285001 133 121 140
-3.535703 2.073121 11.061386 59 47 62
-0.300971 3.024880 5.232061 132 115 134
0.760880 -0.562046 10.742333 46 38 49
-0.369035 3.688658 6.317934 81 62 79
-3.857263 2.376957 10.991241 82 63 78
-0.373215 3.719523 6.303093 82 63 78
-4.713811 3.380121 10.902229 88 63 73
-0.361029 3.675531 6.229322 56 49 69
-3.729753 3.606637 11.543178 128 110 131
-0.357574 3.734127 6.288754 139 120 137
-4.745352 3.732145 11.048529 77 66 88
-0.371941 4.076638 6.876585 131 113 128
-4.885209 2.852093 10.175449 60 49 66
-0.270080 3.105999 5.295002 80 64 83
0.390390 -0.868083 10.884441 128 107 127
-0.299329 3.425666 5.791715 77 65 82
-0.476873 0.874415 11.267422 152 126 139
-0.283876 3.402128 5.751758 120 107 131
-0.167801 0.875440 11.249016 133 121 151
-0.287522 3.405062 5.685342 63 48 68
-0.167347 3.983059 11.722145 62 53 61
-0.341040 4.117985 6.874506 72 59 80
-4.678547 1.813652 9.769673 71 56 78
-0.277345 3.438110 5.765565 78 60 74
-0.450305 0.871654 11.286370 111 99 114
-0.271034 3.426289 5.673931 97 86 98
-0.242514 4.090583 11.779146 50 36 49
-0.290200 3.797279 6.265728 122 105 115
-4.643759 3.374578 10.952602 29 17 14
-0.269160 3.753123 6.154799 102 93 103
-2.570364 3.610313 11.897684 67 49 66
-0.269532 3.768025 6.148975 138 111 111
-2.576701 3.712178 11.929986 60 47 64
-0.271772 3.817938 6.184874 123 104 124
-3.805148 3.932065 11.661311 252 184 165
-0.236583 3.719184 6.096978 126 111 131
-0.597859 -1.747383 11.014571 89 66 93
-0.246564 4.264726 6.962214 63 50 72
-4.237906 -1.444895 9.053456 126 109 131
-0.197760 3.595005 5.828566 60 43 58
-0.423882 -3.179749 10.927467 39 22 18
-0.240645 4.436318 6.996885 131 112 133
-4.301713 -2.633462 8.845389 125 114 137
-0.185315 3.645618 5.673091 72 61 85
-0.414650 3.475986 11.784350 115 103 127
-0.211066 4.429819 6.965692 39 23 16
-4.342587 -1.855796 8.798543 39 23 16
-0.196649 4.031978 6.201287 131 112 101
-1.786932 3.250818 11.855218 140 124 130
-0.196485 4.053566 6.233808 65 48 65
-2.194078 3.238002 11.836660 63 49 70
-0.187748 4.083734 6.252625 63 49 70
-1.407872 0.296955 11.244279 38 21 16
-0.188454 4.174532 6.360614 117 104 126
-2.476787 -0.201374 10.886623 68 47 64
-0.157462 3.615093 5.490056 66 61 60
0.515757 -1.285133 10.926973 254 185 164
-0.183073 4.149266 6.252018 139 123 134
-3.825458 2.098457 10.866052 28 16 12
-0.177567 4.114336 6.195627 21 15 10
-1.470754 2.467960 11.698598 110 87 85
-0.175838 4.099473 6.156702 97 76 74
-1.126629 2.816259 11.773583 89 53 62
-0.174989 4.153998 6.188284 96 63 58
-1.519900 3.213129 11.858390 152 131 140
-0.160378 3.831500 5.709593 137 108 92
-0.407958 2.681557 11.657330 36 26 26
-0.193567 4.611512 6.811110 36 26 26
-4.828743 2.305497 9.842084 111 76 72
-0.155918 3.854932 5.713104 162 116 103
-0.362667 2.736774 11.652102 173 124 113
-0.169919 4.265913 6.310060 111 73 69
-2.798267 2.664525 11.516322 97 64 59
-0.146680 4.173906 6.171341 77 56 51
-3.620029 2.618914 11.195031 128 98 78
-0.108734 3.708732 5.520806 179 140 116
0.550543 -1.224967 10.951311 213 174 150
-0.125957 4.249584 6.302674 80 44 34
-2.567723 -0.192252 10.893972 80 44 34
-0.111947 3.866570 5.740394 213 174 147
-0.436155 -0.058812 11.253776 224 182 164
-0.113999 3.939927 5.719568 177 128 118
-0.440415 0.999141 11.401236 174 126 116
-0.101104 3.746895 5.444333 177 132 122
1.047295 0.975953 10.990217 177 132 122
-2.223404 1.005256 4.154956 133 113 102
0.678543 -0.538133 5.029567 66 47 37
-2.923660 1.633222 6.718343 138 127 119
-0.030844 -0.201180 5.590478 49 30 24
-2.733577 1.597145 6.448688 145 109 95
0.252885 0.706941 5.187376 143 109 93
-2.787256 1.605799 6.589547 142 106 92
-0.737656 -1.716591 6.276846 154 115 100
-2.808933 1.626794 6.648171 154 115 100
-0.416822 0.036306 5.721910 127 92 82
-2.811239 1.663998 6.651268 77 53 42
-0.334160 0.776779 5.502958 151 107 98
-2.814899 1.634399 6.666077 53 26 19
-0.377812 0.300834 5.636197 53 31 29
-2.789142 1.634333 6.617823 95 51 37
-0.552139 -0.226653 5.835157 93 53 39
-2.788479 1.640826 6.616371 148 107 99
-0.545825 0.045647 5.765339 57 33 31
-2.791806 1.643599 6.627491 60 30 16
-0.510423 0.044781 5.748755 163 123 112
-2.641881 1.563561 6.281443 89 49 33
-2.095372 0.212729 5.793484 156 115 105
-2.760144 1.668678 6.560610 165 123 111
-0.679179 0.830331 5.618382 191 146 130
-2.837173 1.715446 6.743698 89 40 32
0.056565 0.777670 5.302042 100 49 32
-2.790330 1.661097 6.643198 47 33 28
-0.426651 -1.494270 6.098905 58 45 47
-2.790951 1.676777 6.647565 205 162 145
-0.377129 0.084595 5.690742 101 72 77
-2.800495 1.681904 6.670565 197 158 144
-0.302200 0.130802 5.639399 119 103 113
-2.642055 0.849368 6.088436 119 103 113
-0.831074 0.133799 5.831782 118 86 74
-2.768373 1.676047 6.601827 116 87 73
-0.572885 -2.066209 6.303462 204 162 144
-2.781863 1.714807 6.632682 220 171 155
-0.344750 0.779676 5.505740 211 166 150
-2.814166 1.743901 6.733656 203 161 144
0.036185 1.361020 5.174494 203 161 144
-2.730744 1.666727 6.542001 203 161 144
-0.824577 -0.091357 5.876784 203 161 144
-2.667718 1.660056 6.389672 97 71 61
-1.413982 0.656876 5.759866 50 45 51
-2.603773 1.638774 6.262720 120 89 85
-1.868346 1.536451 5.477636 131 97 94
-2.755213 1.751271 6.649887 97 68 77
-0.366055 0.919604 5.470384 106 86 102
-2.589027 1.649042 6.262086 107 83 89
-1.863258 1.434693 5.492695 96 78 92
-2.525090 1.617610 6.141643 138 99 92
-2.334699 1.366140 5.319839 238 186 169
-2.582200 1.726013 6.549595 80 61 72
0.225904 1.306620 5.065227 119 86 99
-2.557616 1.724625 6.519705 94 72 85
0.217202 0.610454 5.239198 148 108 100
-2.553582 1.705896 6.576550 114 95 114
-0.050693 -1.317543 5.853782 111 85 100
-2.539429 1.740190 6.558649 75 59 65
0.157713 0.720078 5.242300 63 45 53
-2.550845 1.721604 6.601256 106 88 100
0.122199 -0.085233 5.465473 100 69 82
-2.512686 1.733799 6.504187 150 108 94
0.201607 0.574321 5.250597 129 106 116
-2.520719 1.705939 6.528883 63 41 48
0.219081 -1.308824 5.690834 119 95 117
-2.537997 1.730135 6.584627 94 69 74
0.057299 -1.879403 5.934740 108 94 120
-2.525534 1.770152 6.555430 121 105 114
0.030000 1.383548 5.163113 56 48 46
-2.519187 1.740940 6.544968 128 101 110
-0.112009 -1.482805 5.938758 81 64 72
-2.447860 1.732562 6.382123 84 66 85
-0.668818 1.538954 5.392816 85 67 81
-2.481805 1.759207 6.471772 85 67 81
-0.295335 0.774409 5.463500 143 117 130
-2.501092 1.755617 6.531989 65 50 63
-0.094570 0.135656 5.519403 73 56 74
-2.491002 1.799892 6.501504 67 50 59
-0.092712 0.633007 5.398961 67 50 59
-2.500181 1.773577 6.531393 73 56 71
-0.098782 -1.485018 5.922435 62 49 67
-2.499028 1.779277 6.527988 123 105 122
-0.099593 -1.794171 5.999221 68 57 70
-2.518853 1.793465 6.579835 78 58 78
0.143686 -1.763117 5.854872 76 56 65
-2.480030 1.771302 6.488967 76 56 65
0.276219 -1.844728 5.788124 81 62 69
-2.469021 1.773573 6.500582 78 62 70
-0.213354 0.359773 5.523858 118 102 133
-2.420416 1.743104 6.389242 129 106 125
-0.676656 0.377020 5.676232 69 54 74
-2.465284 1.786918 6.508199 69 54 74
-0.131773 -1.900170 6.034047 67 53 63
-2.415148 1.791865 6.388712 60 43 48
-0.600298 0.673305 5.582302 89 65 77
-2.450604 1.817725 6.486207 124 101 118
-0.172244 0.760651 5.401844 60 44 80
-2.414654 1.800524 6.398129 60 44 80
-0.479497 1.186900 5.423668 68 52 63
-2.363674 1.762597 6.265216 68 52 63
-1.154064 1.236590 5.530983 88 72 84
-2.244059 1.656084 5.970177 119 104 128
-2.649037 -1.363218 5.878858 70 49 59
-2.410824 1.819577 6.427393 130 104 118
0.213544 0.722146 5.212017 129 108 119
-2.355111 1.749151 6.290482 55 42 84
-1.250153 -1.495624 6.244938 55 42 84
-2.412327 1.826417 6.443983 137 118 136
0.179560 1.308161 5.090445 60 49 66
-2.267389 1.736171 6.063560 147 111 104
-2.023209 0.958014 5.462589 128 109 126
-2.337653 1.765040 6.268206 128 109 126
-1.391190 -1.412381 6.217533 55 41 57
-2.356796 1.782309 6.327224 74 57 70
-1.173496 -1.515854 6.234118 56 42 54
-2.385486 1.810399 6.404308 43 25 20
0.237147 -1.333777 5.682425 47 27 21
-2.415289 1.849710 6.487339 47 27 21
0.018998 -1.458802 5.845636 92 63 87
-2.401896 1.844447 6.462399 92 63 87
0.181591 -1.428439 5.748600 87 79 99
-2.246253 1.735948 6.048446 67 50 63
-2.367937 -1.412591 6.032719 67 50 63
-2.211577 1.717262 5.969081 244 175 158
-2.714938 -1.480650 5.855011 54 37 50
-2.207446 1.722775 5.964489 75 66 83
-2.742354 -1.952565 5.995729 54 40 69
-2.383630 1.861985 6.441598 120 101 122
-0.101436 -1.829216 6.000840 80 62 73
-2.242916 1.752233 6.063330 248 179 162
-2.314605 -1.771018 6.171033 77 54 61
-2.313621 1.851500 6.287574 47 39 55
-0.685005 0.683487 5.588096 43 24 17
-2.184290 1.736993 5.956748 43 24 17
-2.646163 -1.796422 5.988524 70 55 67
-2.355841 1.867527 6.435395 87 66 88
0.189765 -1.009880 5.638473 72 56 70
-2.301632 1.857615 6.362552 129 109 126
0.255655 -1.655671 5.755001 142 117 129
-2.287800 1.882235 6.358275 75 60 72
-0.099210 1.177842 5.265757 75 60 72
-2.300318 1.873503 6.430853 58 44 50
0.127010 0.317839 5.354053 61 51 72
-2.143259 1.771664 6.051360 150 108 106
-1.943232 -1.576749 6.169106 40 22 16
-2.198473 1.858885 6.241976 54 41 56
-0.551794 1.062590 5.445353 66 41 48
-2.197646 1.863287 6.239199 78 62 76
-0.560946 0.695198 5.536637 88 53 55
-2.209717 1.852189 6.304034 66 46 56
-0.343762 -1.542938 6.026335 137 117 136
-2.151194 1.831336 6.142444 65 48 63
-1.055947 1.329254 5.458427 142 123 114
-2.101699 1.791219 6.008338 142 123 114
-1.708551 1.313743 5.398345 63 44 51
-2.149696 1.840674 6.147258 65 55 80
-1.033168 1.162208 5.496157 77 61 83
-2.154841 1.820827 6.165673 63 45 54
-1.164241 -1.609723 6.224668 80 58 70
-2.083271 1.764909 5.966166 130 108 119
-2.198784 -0.972805 5.889514 66 54 69
-2.078645 1.785908 5.990868 54 37 49
-2.094315 -1.908946 6.211488 127 107 119
-2.039099 1.759682 5.888140 52 39 66
-2.543216 -1.958980 6.029428 78 61 76
-2.096602 1.803218 6.067568 78 61 76
-1.584690 -1.049534 6.057999 60 48 56
-2.025010 1.771049 5.867562 60 48 56
-2.282309 0.593390 5.348907 63 51 65
-2.095872 1.840728 6.097269 76 59 74
-1.087758 0.609503 5.628557 81 56 61
-2.099081 1.835037 6.109906 66 53 62
-1.176473 -1.215536 6.109693 66 53 62
-2.088396 1.836264 6.114344 129 108 129
-1.136191 -0.953619 6.037616 70 59 81
-2.121504 1.866739 6.215397 78 61 74
-0.612645 -0.958531 5.949909 78 61 74
-2.014642 1.788101 5.908135 90 69 106
-2.314266 -2.033839 6.151556 90 69 106
-2.045579 1.818808 6.022899 76 52 70
-1.604787 -1.735095 6.226410 51 40 51
-2.018498 1.798181 5.954759 255 221 206
-2.037585 -1.687388 6.133808 255 221 206
-2.013209 1.824470 5.935378 71 52 61
-1.804527 1.060346 5.409889 71 52 61
-2.038607 1.838129 6.014986 50 43 64
-1.481354 0.532414 5.622712 41 34 50
-1.993609 1.838534 5.981476 63 49 61
-1.429545 1.318980 5.417791 64 55 76
-1.935935 1.795274 5.819246 64 55 76
-2.277489 0.679341 5.278671 57 42 74
-1.976740 1.841215 5.962947 52 37 69
-1.466697 0.860587 5.522231 41 40 48
-1.429821 1.317880 4.328065 53 40 53
0.366247 -1.325120 5.565240 83 61 77
-1.429702 1.319457 4.327668 128 105 118
0.342728 0.189013 5.218733 78 57 74
-2.042315 1.885528 6.195777 119 99 122
-0.321377 -0.615619 5.767939 78 55 72
-2.042865 1.883513 6.197915 78 55 72
-0.318925 -0.417236 5.718103 125 103 123
-1.961504 1.822144 5.954164 41 34 42
-1.739548 -1.023821 5.974972 70 55 74
-1.915116 1.820428 5.822989 70 55 74
-2.056630 0.674843 5.389586 81 69 112
-1.957996 1.832915 5.959905 137 117 136
-1.759977 -1.385767 6.085812 65 46 57
-1.987289 1.863659 6.050308 76 60 80
-1.153067 -1.283371 6.097332 106 89 108
-2.027308 1.900961 6.172565 83 60 75
-0.340388 -1.084181 5.888591 40 34 59
-1.410108 1.329227 4.301422 68 55 74
0.273533 -1.869294 5.754034 74 60 77
-1.409936 1.331162 4.300780 34 30 32
0.274265 -1.920447 5.766397 56 47 68
-1.919314 1.814209 5.856014 56 47 68
-2.252410 -1.628649 6.002223 51 43 55
-1.928516 1.815630 5.894128 86 72 90
-1.958090 -0.372629 5.732047 116 99 153
-2.009223 1.893817 6.146919 60 44 59
-0.477342 -0.416888 5.761529 55 39 50
-1.894067 1.798145 5.797013 44 36 60
-2.563497 -1.239913 5.696829 44 36 60
-1.890479 1.825093 5.784223 53 53 77
-2.388297 0.343323 5.294968 121 99 120
-1.931398 1.882539 5.911734 35 29 42
-1.657628 1.390750 5.330302 91 79 130
-1.877776 1.806450 5.755845 46 36 50
-2.665420 -1.239304 5.616074 46 36 50
-1.882276 1.823274 5.776407 46 36 50
-2.362118 0.426457 5.280094 55 47 70
-1.991696 1.928057 6.114173 74 69 104
-0.597882 -1.982718 6.193664 74 69 104
-1.981736 1.924225 6.120170 40 36 41
-0.499518 -1.253440 5.980480 113 97 150
-1.974984 1.956771 6.093867 29 25 64
-0.477813 -0.133549 5.693854 75 55 75
-1.853753 1.817801 5.738221 69 54 75
-2.706871 -1.535498 5.671939 38 29 49
-1.853753 1.817801 5.738221 62 52 73
-2.706871 -1.535498 5.671939 68 52 69
-1.893862 1.857062 5.880100 65 53 71
-1.973522 -0.949041 5.871109 65 53 71
-1.939193 1.907695 6.022169 98 81 125
-1.076251 -1.293148 6.087352 53 49 64
-1.940193 1.903552 6.026200 132 115 136
-1.055106 -0.812918 5.958580 77 59 78
-1.954531 1.942595 6.095107 67 49 65
-0.490005 -1.948551 6.143528 63 44 90
-1.889987 1.885571 5.892951 124 108 129
-1.660886 -0.007123 5.695920 124 108 129
-1.876061 1.870996 5.853846 87 72 102
-1.868456 0.362534 5.532106 77 59 77
-1.370971 1.354666 4.281096 77 59 77
0.284883 -0.844598 5.501861 50 49 72
-1.884939 1.880897 5.885952 61 46 66
-1.826074 -1.395540 6.052109 98 81 127
-1.942448 1.941406 6.074519 18 18 42
-0.763430 -1.450799 6.087655 18 18 42
-1.946784 1.946447 6.090819 65 55 74
-0.552001 -1.207392 5.974289 65 55 74
-1.883615 1.896966 5.905124 59 48 83
-1.635084 -1.745866 6.189327 127 108 128
-1.852079 1.906679 5.810507 86 63 80
-1.798416 1.520582 5.234684 49 37 75
-1.917679 1.998989 6.043684 52 42 58
-0.462381 0.670325 5.483751 106 91 144
-1.917625 1.999466 6.043497 103 85 130
-0.462832 0.648153 5.489249 63 52 76
-1.900395 1.958838 6.000133 125 106 124
-0.974018 -1.803358 6.209114 109 91 135
-1.793979 1.879795 5.670663 73 62 78
-2.438395 0.772500 5.075793 79 62 79
-1.850972 1.943989 5.863463 51 41 53
-1.599383 0.825124 5.469447 51 41 53
-1.791405 1.869669 5.679752 56 50 73
-2.410856 0.101527 5.312415 63 48 94
-1.791011 1.861755 5.687872 61 55 74
-2.687350 -1.531886 5.649103 61 55 74
-1.803637 1.885083 5.728237 47 40 63
-2.368261 0.352655 5.260630 89 72 101
-1.806077 1.873471 5.738538 89 72 101
-2.506575 -0.916398 5.577428 69 57 78
-1.914092 1.991100 6.097351 73 61 92
-0.327288 -1.051734 5.867190 68 56 78
-1.818084 1.904834 5.790920 104 83 129
-2.185355 -1.997464 6.103457 44 38 60
-1.899234 1.995998 6.050564 66 54 72
-0.503511 -2.072232 6.183110 74 59 78
-1.901343 2.000571 6.067615 66 55 70
-0.433578 -1.690354 6.055395 60 49 90
-1.891119 1.993589 6.046397 44 37 66
-0.652454 -1.697457 6.117584 59 46 79
-1.838499 1.933397 5.885687 59 46 79
-1.555941 -0.590679 5.856048 83 63 74
-1.787287 1.928924 5.716279 83 63 74
-2.131192 0.925862 5.227458 67 54 72
-1.888206 2.014213 6.044904 58 46 62
-0.446579 0.396457 5.544196 123 106 130
-1.881744 2.035706 6.045698 58 46 70
-0.336152 0.771986 5.424276 123 106 130
-1.784911 1.911514 5.740476 55 45 62
-2.322764 -1.099084 5.738807 55 45 62
-1.827687 1.996173 5.873431 49 37 70
-1.322348 1.019284 5.455979 75 61 79
-1.293507 1.413627 4.165248 77 56 73
0.622580 0.900833 4.866498 68 56 79
-1.295257 1.400389 4.174169 34 27 65
0.699597 -1.845346 5.464912 34 27 65
-1.799112 1.985178 5.823617 132 110 129
-1.466474 0.771756 5.497288 128 111 133
-1.774248 1.971903 5.777309 125 107 130
-1.684970 1.256951 5.313444 53 45 63
-1.748122 1.916821 5.714853 56 46 68
-2.296581 -0.718745 5.614836 62 47 70
-1.792526 1.990292 5.917877 67 55 70
-1.136514 -0.788917 5.924176 44 34 50
-1.754944 1.974671 5.820810 54 42 81
-1.658846 -2.085982 6.240566 49 38 57
-1.807114 2.034724 6.005654 32 27 67
-0.502013 -1.410811 5.994663 32 25 51
-1.763435 2.028499 5.876359 61 54 74
-0.885233 0.678422 5.532745 61 54 74
-1.164017 1.320687 3.899818 67 57 79
0.753878 -1.136169 5.250516 67 57 79
-1.728961 1.966399 5.806029 60 47 95
-1.555886 -0.766548 5.870918 78 63 83
-1.245425 1.414951 4.183538 78 63 83
0.280438 -0.776439 5.486698 127 105 124
-1.732216 1.970914 5.819288 71 56 71
-1.440072 -0.773290 5.890952 24 23 56
-1.731601 1.982452 5.817915 21 21 51
-1.417441 -0.405063 5.793423 120 108 133
-1.721971 1.990505 5.802668 45 35 54
-1.575510 -0.763366 5.866098 78 59 77
-1.719286 2.015549 5.792354 90 67 82
-1.619593 -1.410513 6.041270 33 26 54
-1.749177 2.056311 5.908930 33 26 54
-0.883452 -1.451932 6.078641 63 49 83
-1.658144 1.961369 5.611671 63 48 69
-2.598795 -1.759458 5.724157 24 22 44
-1.702821 2.012899 5.781556 38 29 62
-1.589666 -1.205367 5.983171 38 29 62
-1.739523 2.058914 5.913195 38 29 62
-0.759153 -1.242781 5.999515 76 53 68
-1.737360 2.075845 5.904305 94 75 112
-0.782667 -2.030776 6.210600 94 75 112
-1.656979 2.000082 5.646294 33 31 69
-2.407628 -1.827739 5.870385 25 23 49
-1.666912 2.017113 5.682399 32 24 56
-2.164899 -1.903248 6.019326 32 24 56
-1.636591 1.979748 5.581923 91 66 77
-2.608598 -1.242306 5.515408 75 57 70
-1.637441 1.975586 5.586024 51 40 85
-2.546489 -0.700373 5.377991 51 40 85
-1.219306 1.471973 4.160892 47 38 84
0.477495 -0.788781 5.375615 32 29 70
-1.218341 1.486050 4.156906 38 29 56
0.486085 -1.191829 5.467542 50 43 91
-1.633237 2.008276 5.578193 58 46 65
-2.600941 -1.256941 5.526440 66 56 99
-1.700164 2.088583 5.826348 66 56 99
-1.116751 -0.444742 5.815650 58 47 93
-1.139079 1.411604 3.903160 60 50 74
0.775007 -1.863926 5.414298 60 50 74
-1.138975 1.413803 3.902863 52 38 73
0.773922 -1.829264 5.406798 84 73 109
-1.645432 2.050433 5.645679 50 40 85
-2.243087 -1.877461 5.966338 95 70 89
-1.645504 2.051189 5.646233 34 27 57
-2.229858 -1.741288 5.928659 56 42 74
-1.635997 2.050259 5.620666 38 26 56
-2.352217 -1.148636 5.666581 98 75 93
-1.565206 1.965418 5.389025 51 46 81
-0.366123 -0.445466 5.702332 24 21 42
-1.658843 2.093865 5.727575 34 26 55
-1.573328 -0.608062 5.808081 24 22 42
-1.629702 2.070617 5.624816 39 28 59
-2.282956 -1.690431 5.880055 28 23 51
-1.629039 2.077645 5.622259 60 47 94
-2.286470 -1.725876 5.889767 53 45 87
-1.198017 1.527606 4.148788 58 49 71
0.278519 -0.440595 5.407480 64 51 103
-1.196569 1.528197 4.145361 64 51 103
0.228117 -0.614155 5.474702 54 43 89
-1.549224 1.995985 5.373692 141 116 159
-0.289056 -1.583043 5.960068 45 36 67
-1.665652 2.152185 5.792607 131 107 129
-1.170023 -1.582995 6.111493 48 44 80
-1.646886 2.149091 5.734692 83 60 72
-1.303008 -0.838495 5.905278 37 30 60
-1.661489 2.190978 5.802434 57 49 71
-0.957169 -2.066720 6.233448 41 30 65
-1.572175 2.071357 5.531577 39 28 58
-2.489550 -0.185904 5.223502 97 83 129
-1.641236 2.162395 5.789337 35 27 67
-1.054915 0.357702 5.591425 39 31 69
-1.624975 2.147345 5.749125 39 30 54
-1.229980 0.523225 5.541935 21 21 42
-1.623867 2.158297 5.744609 30 25 56
-1.247409 0.204659 5.622595 39 31 54
-1.615646 2.183528 5.710589 90 74 126
-1.513054 -2.033107 6.206109 48 33 44
-1.638705 2.219670 5.804670 67 52 91
-0.785807 -2.072065 6.208954 67 52 91
-1.575430 2.149922 5.614540 137 118 122
-1.991220 -1.505325 5.930893 137 118 122
-1.575202 2.153967 5.613940 98 81 131
-1.982088 -1.398764 5.901789 36 26 63
-1.497341 2.055495 5.336424 42 36 69
-0.336867 -2.065777 6.090328 58 43 81
-1.530321 2.118657 5.456617 76 52 62
-2.778665 -1.770243 5.504017 87 71 118
-1.571460 2.179603 5.612571 49 40 83
-1.949135 -1.413867 5.913597 137 114 125
-1.543980 2.125496 5.523197 14 14 29
-2.377539 0.206692 5.171410 26 23 53
-1.608836 2.253009 5.779464 90 79 128
-0.840325 -1.665393 6.102551 58 45 79
-1.578996 2.187621 5.678307 36 28 54
-1.477025 0.707102 5.446469 25 21 55
-1.479039 2.072835 5.325030 93 73 99
-0.300674 -1.088237 5.828315 43 34 63
-1.582886 2.231689 5.707325 39 34 66
-1.352726 -1.689590 6.111118 25 23 58
-1.524441 2.135833 5.517081 16 16 35
-2.272236 0.466703 5.156859 80 69 120
-1.462757 2.066148 5.305910 57 46 82
-0.357302 -0.280653 5.643713 73 63 124
-1.546495 2.190776 5.613328 37 29 58
-2.008605 -0.388178 5.556454 37 29 58
-1.544255 2.205305 5.601946 92 77 125
-2.126748 -1.697688 5.902886 21 21 42
