ply
		format ascii 1.0
		element vertex 11776
		property float x
		property float y
		property float z
		property uchar blue
		property uchar green
		property uchar red
		end_header
0.857699 -1.486015 6.533754 64 56 82
0.853695 -1.234423 6.505091 85 70 93
0.872706 -1.826117 6.565862 78 64 89
0.756052 1.772293 5.781242 49 44 58
0.789676 0.801957 5.906368 102 85 133
0.790698 0.777666 5.909504 47 35 64
0.905277 -1.845544 6.553885 83 72 103
0.793967 0.960259 5.892957 61 51 92
0.793967 0.960259 5.892957 61 51 92
0.835090 0.150741 6.132112 23 22 50
0.912896 -1.820612 6.556723 141 121 139
0.830126 0.454181 6.098042 46 37 65
0.897011 -1.074176 6.478405 76 61 89
0.897011 -1.074176 6.478405 76 61 89
0.925403 -2.168283 6.581639 132 109 124
0.931062 -2.122528 6.576748 74 52 69
0.923120 -1.739716 6.532236 95 77 104
0.923120 -1.739716 6.532236 95 77 104
0.902470 -0.605024 6.421722 77 63 91
0.811656 1.102194 5.819901 27 27 42
0.851538 0.515208 6.077465 36 34 68
0.822006 0.918655 5.881826 47 39 74
0.938285 -1.246149 6.476316 78 65 85
0.832937 1.167997 5.835816 22 23 39
0.832937 1.167997 5.835816 22 23 39
0.967839 -2.061660 6.553261 84 71 103
0.846941 0.896257 5.878160 43 37 65
0.838372 1.457850 5.805249 41 34 55
0.949538 -0.817707 6.433217 126 108 127
0.953637 -0.802324 6.426841 85 65 88
0.988916 -2.178135 6.555507 89 69 96
0.976874 -1.450183 6.485982 136 117 140
0.869230 0.794927 5.871164 50 39 69
0.977176 -1.261713 6.465754 83 69 91
0.965735 -0.800473 6.413795 86 67 85
0.965735 -0.800473 6.413795 86 67 85
0.965735 -0.800473 6.413795 86 67 85
0.974216 -0.397290 6.370754 139 120 145
0.993695 -0.798658 6.407354 140 120 139
1.033103 -1.488626 6.464034 79 64 90
1.033103 -1.488626 6.464034 79 64 90
1.051948 -2.055948 6.520285 142 118 133
1.031707 -1.272909 6.443641 82 72 93
1.031707 -1.272909 6.443641 82 72 93
1.065467 -2.075191 6.519918 79 58 92
1.080956 -2.066002 6.508987 127 104 127
1.086735 -2.082403 6.511738 80 63 90
1.074581 -1.491247 6.448134 70 55 79
1.059808 -0.845114 6.387411 81 65 78
1.062124 -0.824809 6.382311 144 121 131
1.089675 -1.281789 6.413877 84 69 95
1.106935 -1.503744 6.434178 73 59 81
1.083742 -0.430841 6.336868 77 62 90
1.130952 -2.090531 6.492818 88 70 97
1.133996 -2.051255 6.487496 76 54 76
1.135566 -2.072587 6.485233 138 116 133
1.133999 -1.928252 6.470743 135 117 140
1.131420 -1.317092 6.399330 85 70 94
1.124572 -0.418219 6.328672 142 119 138
1.130314 -0.630762 6.342013 54 48 69
1.165409 -1.890098 6.462051 131 111 127
1.172277 -1.925405 6.455052 78 66 87
1.143458 -0.417049 6.306561 150 129 147
1.149770 -0.613971 6.327201 123 103 123
1.179283 -1.630914 6.420625 69 57 80
1.179283 -1.630914 6.420625 69 57 80
1.187683 -0.863481 6.339024 134 112 123
1.224606 -2.104018 6.454453 73 61 85
1.175188 -0.213643 6.272690 64 50 74
1.162921 0.466666 6.218043 127 108 119
1.160877 0.655695 6.201291 144 118 128
1.178739 0.288026 6.231214 58 52 79
1.253180 -2.106714 6.441764 96 78 98
1.253180 -2.106714 6.441764 96 78 98
1.248586 -1.637000 6.394287 78 64 90
1.250670 -1.522987 6.379469 77 63 87
1.271355 -2.117449 6.437072 100 76 88
1.288916 -2.154969 6.428577 99 74 88
1.276958 -1.532453 6.363514 67 58 78
1.231569 0.281838 6.206347 69 58 86
1.291375 -1.701832 6.384540 76 57 79
1.226027 0.871209 6.150581 144 121 124
1.277086 -1.111572 6.323848 133 116 134
1.298005 -1.750450 6.382622 79 56 76
1.236327 0.608251 6.159165 64 51 74
1.262921 -0.237190 6.236205 122 105 137
1.269574 -0.418680 6.249327 133 107 129
1.313636 -1.867285 6.381100 135 115 123
1.300717 -1.129754 6.330698 47 38 55
1.265321 0.039449 6.203968 70 60 80
1.328691 -2.125909 6.406851 119 101 116
1.268922 0.078225 6.208159 137 116 132
1.308695 -1.308677 6.327941 71 61 83
1.252939 0.852524 6.136844 73 56 74
1.295804 -0.858543 6.276760 133 116 129
1.310867 -1.172506 6.317144 66 56 69
1.328098 -1.660156 6.362415 66 53 73
1.318634 -1.147988 6.313590 75 66 73
1.303231 -0.436457 6.242931 49 38 54
1.295735 -0.188036 6.213506 145 125 144
1.294499 0.002424 6.198296 127 105 129
1.329269 -1.199094 6.307693 127 110 136
1.266632 1.468010 6.081794 127 101 115
1.366298 -2.131332 6.392536 83 62 84
1.342001 -1.314110 6.313208 77 64 89
1.353047 -1.542492 6.327079 70 57 75
1.320644 -0.233564 6.223859 56 46 56
1.345774 -1.167781 6.295626 113 100 122
1.325817 -0.422899 6.231883 125 102 119
1.327085 -0.422864 6.234063 125 102 119
1.285872 1.361824 6.079705 52 38 57
1.301286 0.727795 6.122842 131 111 121
1.287599 1.438597 6.074711 40 32 48
1.346348 -0.867206 6.269920 135 117 124
1.303320 0.823726 6.108761 119 104 134
1.274130 1.663838 5.974876 67 52 56
1.319454 0.452404 6.150281 130 108 125
1.342198 -0.214705 6.208803 69 53 76
1.363493 -0.869699 6.261278 83 57 75
1.336115 0.079502 6.169312 139 114 133
1.330724 0.436457 6.147494 59 46 67
1.387220 -1.519862 6.316978 136 112 125
1.375959 -1.128117 6.277175 85 66 87
1.366428 -0.669984 6.251057 129 113 116
1.327670 0.713042 6.111365 78 61 83
1.318068 1.227762 6.069294 131 109 113
1.372088 -0.692435 6.239730 60 49 57
1.372088 -0.692435 6.239730 60 49 57
1.397697 -1.546839 6.312719 62 50 68
1.386162 -1.164787 6.270763 74 62 84
1.418344 -2.131080 6.369258 78 57 78
1.410482 -1.887335 6.345053 85 66 88
1.358104 0.046086 6.171399 61 48 63
1.340332 0.906466 6.084013 47 33 50
1.340332 0.906466 6.084013 47 33 50
1.340332 0.906466 6.084013 47 33 50
1.331267 1.405749 6.048420 99 79 94
1.334882 1.228005 6.058681 130 109 116
1.412328 -1.512042 6.307816 93 70 82
1.349842 0.712121 6.106602 84 66 87
1.406661 -1.328755 6.285655 69 61 84
1.348471 0.924622 6.082620 122 102 110
1.365076 0.426278 6.124811 73 59 78
1.431244 -1.663709 6.309384 81 63 85
1.383019 0.224723 6.138380 78 62 81
1.383019 0.224723 6.138380 78 62 81
1.446385 -1.894157 6.333305 84 66 89
1.431405 -1.405914 6.288774 66 50 68
1.372086 0.713209 6.093850 142 119 123
1.372086 0.713209 6.093850 142 119 123
1.425527 -1.171839 6.262148 67 55 75
1.371766 0.870198 6.083061 68 51 65
1.365132 1.266354 6.047586 134 110 119
1.365132 1.266354 6.047586 134 110 119
1.443350 -1.561799 6.293642 60 49 68
1.404799 -0.229595 6.176035 55 45 71
1.420157 -0.678376 6.223046 59 46 63
1.444890 -1.330015 6.266028 68 56 78
1.380982 1.027340 6.062229 143 122 125
1.380982 1.027340 6.062229 143 122 125
1.467180 -1.943272 6.326544 82 69 82
1.407044 0.057766 6.143012 123 102 120
1.375827 1.293418 6.038102 136 113 118
1.378445 1.266193 6.043762 90 64 79
1.389214 0.892618 6.073639 131 108 113
1.439800 -0.898340 6.231180 81 66 79
1.386802 1.242075 6.044145 129 105 107
1.396286 0.848563 6.072154 126 104 121
1.400124 0.866609 6.068701 63 49 66
1.400124 0.866609 6.068701 63 49 66
1.413223 0.421509 6.105213 75 61 78
1.432439 -0.220704 6.163914 76 64 78
1.467502 -1.408918 6.265467 64 52 71
1.399562 1.040817 6.052401 75 51 67
1.492234 -2.115426 6.335475 138 113 126
1.455637 -0.965786 6.226884 61 47 65
1.394728 1.343738 6.027038 75 59 80
1.470083 -1.368585 6.256783 77 64 84
1.470140 -1.388571 6.254290 133 112 126
1.430179 0.050446 6.124315 130 110 128
1.409053 1.017386 6.049286 68 50 71
1.470314 -1.151959 6.238661 81 59 79
1.470314 -1.151959 6.238661 81 59 79
1.425218 0.640407 6.081109 141 118 129
1.405497 1.501905 6.005178 141 107 117
1.448975 -0.188063 6.141469 142 121 145
1.460231 -0.462830 6.173772 58 49 71
1.421605 0.925714 6.044022 142 122 140
1.487203 -1.320013 6.246335 139 115 134
1.513111 -2.112044 6.319255 88 63 77
1.437447 0.425143 6.094494 64 50 71
1.418308 1.224833 6.030143 140 117 119
1.454936 -0.023564 6.118636 133 113 134
1.436877 0.665004 6.060613 127 112 134
1.456560 0.027757 6.117323 89 69 93
1.473471 -0.228944 6.155106 56 46 58
1.500134 -1.180123 6.228605 68 54 81
1.434845 1.202922 6.016171 55 49 71
1.474659 -0.116035 6.124670 129 113 134
1.488814 -0.434634 6.167463 138 114 130
1.502986 -0.883849 6.192194 132 110 130
1.440282 1.512532 5.990125 136 103 108
1.532983 -1.744662 6.266757 81 60 89
1.462833 0.634194 6.056318 81 60 79
1.522889 -1.369125 6.234798 128 109 127
1.445320 1.488173 5.998837 46 33 41
1.467461 0.587470 6.054957 120 105 128
1.468353 0.621333 6.057127 126 107 124
1.468353 0.621333 6.057127 126 107 124
1.474401 0.409302 6.075191 77 57 80
1.448026 1.467242 5.991181 108 90 99
1.448026 1.467242 5.991181 108 90 99
1.488715 -0.042666 6.118031 64 46 62
1.531606 -1.330792 6.233941 95 77 96
1.544088 -1.766827 6.261686 127 107 129
1.544088 -1.766827 6.261686 127 107 129
1.468589 1.219978 6.006964 61 45 62
1.510915 -0.248032 6.135128 42 36 53
1.510915 -0.248032 6.135128 42 36 53
1.475555 1.011515 6.008128 121 109 133
1.482557 0.838016 6.024985 71 50 69
1.498594 0.514075 6.051064 75 65 93
1.477512 1.342818 5.974199 76 57 77
1.544793 -0.901721 6.173616 57 40 60
1.496606 0.812451 6.028796 147 127 132
1.496606 0.812451 6.028796 147 127 132
1.571337 -1.629449 6.236165 83 68 81
1.571337 -1.629449 6.236165 83 68 81
1.569419 -1.418351 6.220690 51 41 55
1.526035 0.024001 6.083699 94 74 90
1.577359 -1.343541 6.211139 64 47 72
1.554533 -0.666545 6.142424 125 105 120
1.505693 1.021925 5.992340 65 54 72
1.515027 0.847403 6.021013 68 48 57
1.515027 0.847403 6.021013 68 48 57
1.567154 -0.926592 6.167553 73 65 94
1.506723 1.208101 5.985508 74 61 80
1.586011 -1.478274 6.211864 144 119 134
1.503486 1.464996 5.965866 137 114 118
1.503486 1.464996 5.965866 137 114 118
1.600843 -1.832661 6.248053 83 61 81
1.587193 -1.397601 6.202894 120 101 123
1.525021 0.810599 6.019956 52 50 73
1.525021 0.810599 6.019956 52 50 73
1.513100 1.223066 5.982641 161 137 138
1.506527 1.366821 5.959301 118 97 121
1.506527 1.366821 5.959301 118 97 121
1.563084 -0.494209 6.129002 57 47 59
1.563084 -0.494209 6.129002 57 47 59
1.584106 -1.188839 6.188115 72 59 79
1.514555 1.235588 5.978062 135 104 120
1.528590 0.661135 6.017972 126 110 129
1.535814 0.422370 6.037330 82 59 76
1.538419 0.528285 6.020411 131 112 127
1.603191 -1.432925 6.206206 68 59 80
1.609956 -1.686416 6.220426 84 67 77
1.577594 -0.552415 6.122365 67 50 70
1.554240 0.274123 6.052041 139 125 129
1.592810 -0.903436 6.150585 87 64 76
1.586478 -0.684401 6.133258 52 47 69
1.586478 -0.684401 6.133258 52 47 69
1.533591 1.201614 5.975152 83 64 81
1.565535 0.016133 6.068742 82 69 89
1.556577 0.365288 6.038979 70 54 72
1.597750 -0.931119 6.151635 79 65 93
1.568949 0.262189 6.043182 73 58 78
1.566031 0.498032 6.014369 76 68 92
1.566031 0.498032 6.014369 76 68 92
1.541520 1.413087 5.938310 116 94 118
1.556522 1.172756 5.965612 146 124 129
1.558372 1.076139 5.970252 145 121 125
1.583174 0.410871 6.023349 81 64 85
1.554026 1.543342 5.916757 74 65 74
1.653320 -1.685450 6.199697 76 58 78
1.653320 -1.685450 6.199697 76 58 78
1.557520 1.511606 5.923098 70 56 76
1.631772 -0.930744 6.133331 67 53 77
1.631772 -0.930744 6.133331 67 53 77
1.563079 1.419817 5.933110 118 97 118
1.652815 -1.518518 6.182832 79 60 84
1.566695 1.452355 5.939960 50 40 51
1.583456 1.101073 5.953618 81 68 87
1.618555 0.248198 6.021580 76 57 76
1.667671 -1.181416 6.144816 74 53 61
1.670952 -1.169271 6.154737 136 118 133
1.622727 0.264762 6.014141 138 122 139
1.601946 1.063156 5.944842 154 128 141
1.677471 -1.327824 6.155190 145 121 135
1.691516 -1.437591 6.161598 51 44 63
1.637115 0.248206 6.008260 78 59 78
1.601552 1.465294 5.902157 124 108 134
1.691135 -1.346071 6.148844 60 43 58
1.614416 1.097772 5.929356 75 61 86
1.679925 -0.935875 6.111143 60 51 65
1.713438 -1.672076 6.166271 125 105 128
1.706018 -1.369166 6.138394 116 102 117
1.626528 1.158856 5.918962 135 117 130
1.626528 1.158856 5.918962 135 117 130
1.704591 -1.343424 6.131712 60 47 61
1.717634 -1.588455 6.158463 64 54 74
1.721547 -1.693833 6.166193 55 42 50
1.715988 -1.404694 6.133933 132 110 127
1.643503 0.987530 5.934685 88 80 102
1.640033 1.234534 5.909179 151 122 131
1.726882 -1.481893 6.139553 79 63 89
1.726882 -1.481893 6.139553 79 63 89
1.714308 -0.930411 6.088407 116 103 122
1.692941 -0.246900 6.030535 48 43 64
1.679360 0.245229 5.990458 86 67 88
1.651008 1.215249 5.908874 82 69 90
1.708532 -0.709486 6.063588 82 69 71
1.664894 0.645508 5.933667 175 64 26
1.657697 1.059901 5.916663 149 125 140
1.708049 -0.445591 6.047437 92 71 87
1.710960 -0.479026 6.044170 55 45 61
1.656355 1.391102 5.884306 129 109 127
1.668074 1.034055 5.914736 67 52 70
1.718670 -0.456380 6.044706 137 120 132
1.668474 1.216300 5.899136 85 70 84
1.688462 0.513295 5.946984 81 61 82
1.756652 -1.437022 6.124520 72 55 73
1.756652 -1.437022 6.124520 72 55 73
1.722703 -0.430777 6.032691 75 57 70
1.666701 1.435045 5.875951 55 41 59
1.666701 1.435045 5.875951 55 41 59
1.668735 1.466753 5.874971 134 114 136
1.683465 0.777348 5.910814 207 114 76
1.687278 0.680506 5.919295 208 110 69
1.681428 1.052528 5.900694 155 130 141
1.775902 -1.701739 6.147155 65 48 65
1.775902 -1.701739 6.147155 65 48 65
1.692542 0.796680 5.919580 79 41 47
1.792546 -2.052690 6.173892 85 65 81
1.792546 -2.052690 6.173892 85 65 81
1.706974 0.608812 5.940500 65 46 58
1.783248 -1.595913 6.132938 63 51 75
1.729864 0.041832 5.982148 72 54 76
1.734820 0.009445 5.983103 76 64 91
1.698362 1.233601 5.876941 156 126 133
1.712933 0.630967 5.913104 127 107 128
1.738442 0.027321 5.986030 130 111 128
1.754752 -0.456907 6.020390 138 119 136
1.755539 -0.227767 5.997976 134 116 133
1.704567 1.464637 5.852523 134 108 126
1.800946 -1.425230 6.100383 67 54 66
1.746186 0.239919 5.952517 90 70 95
1.771571 -0.499850 6.016713 71 64 92
1.733937 0.654635 5.915804 89 73 97
1.815577 -1.572149 6.111787 140 114 126
1.823180 -1.771760 6.126056 128 107 130
1.827633 -1.890529 6.136125 87 68 90
1.807131 -1.187436 6.067719 69 57 69
1.829974 -1.704343 6.116332 67 48 63
1.726901 1.460740 5.848585 126 106 117
1.826836 -1.552109 6.104454 127 102 114
1.821848 -1.447231 6.086481 128 109 119
1.728921 1.438555 5.838966 59 49 64
1.845399 -1.984578 6.134772 123 105 122
1.836089 -1.686835 6.112178 132 108 127
1.849602 -1.962917 6.143934 60 39 55
1.849602 -1.962917 6.143934 60 39 55
1.830945 -1.435662 6.089597 74 50 63
1.762091 0.641127 5.903404 119 106 130
1.854013 -1.930424 6.130044 131 109 130
1.801957 -0.395294 5.987043 64 56 77
1.790585 -0.014114 5.956664 126 112 135
1.850820 -1.727602 6.101950 120 103 126
1.828403 -0.938753 6.029931 75 62 90
1.761998 1.130308 5.850471 96 78 105
1.816392 -0.493259 5.991876 66 59 86
1.853264 -1.456473 6.085564 68 50 64
1.860217 -1.451009 6.085731 74 54 68
1.759700 1.459455 5.823518 126 101 110
1.848036 -1.192099 6.046054 56 42 55
1.761826 1.438483 5.821576 66 54 72
1.774863 1.207226 5.843820 62 48 67
1.771595 1.234712 5.828837 134 113 129
1.873868 -1.675197 6.088029 121 98 116
1.818072 -0.001071 5.938656 49 43 63
1.818072 -0.001071 5.938656 49 43 63
1.793603 0.839844 5.876847 128 107 122
1.770174 1.532528 5.799491 90 75 100
1.818761 0.251732 5.918541 124 108 118
1.805625 0.559469 5.878656 130 113 136
1.890920 -1.731046 6.086137 116 98 121
1.854841 -0.280352 5.956624 56 44 61
1.862816 -0.501618 5.975429 64 48 72
1.862816 -0.501618 5.975429 64 48 72
1.846530 0.274138 5.898570 130 110 133
1.896675 -1.198966 6.019500 70 60 74
1.896675 -1.198966 6.019500 70 60 74
1.824063 0.877160 5.836273 120 104 128
1.808627 1.445114 5.792267 79 60 76
1.838585 0.831121 5.838874 67 56 72
1.941095 -1.973996 6.087621 54 40 56
1.913442 -1.170019 6.013604 123 110 134
1.913442 -1.170019 6.013604 123 110 134
1.862975 0.272598 5.883255 135 117 138
1.868073 0.254787 5.894273 74 55 73
1.875744 0.022903 5.899255 105 89 109
1.861954 0.618715 5.852228 120 102 120
1.950860 -1.745575 6.057691 125 104 128
1.809000 1.638464 5.691582 77 59 71
1.809000 1.638464 5.691582 77 59 71
1.848683 1.192619 5.795775 68 55 74
1.859151 0.880222 5.815044 80 60 79
1.861692 0.973786 5.818962 138 114 121
1.879894 0.395653 5.856612 85 65 88
1.962235 -1.721862 6.049380 66 48 62
1.962235 -1.721862 6.049380 66 48 62
1.852980 1.462485 5.771212 117 94 99
1.941688 -0.967959 5.977365 127 110 119
1.885231 0.551338 5.833711 130 115 141
1.896564 0.392359 5.847759 90 71 91
1.906073 0.232102 5.868110 48 39 54
1.906073 0.232102 5.868110 48 39 54
1.879996 1.042977 5.796000 137 121 134
1.971911 -0.948592 5.956581 74 55 75
1.927334 0.243849 5.846360 128 109 126
1.927853 0.392613 5.829124 76 58 81
1.948606 0.004208 5.874280 59 49 70
1.900375 1.459138 5.755171 70 61 68
1.921682 0.672414 5.799757 75 64 93
1.964935 -0.278893 5.886751 52 47 73
1.922799 1.047103 5.775027 139 113 124
2.026892 -1.728705 6.014247 56 35 51
1.932889 0.819413 5.790787 59 48 70
1.958519 0.390814 5.813714 86 66 90
2.012188 -1.019783 5.937066 80 64 91
2.012188 -1.019783 5.937066 80 64 91
1.955437 0.608538 5.799867 133 117 130
1.925116 1.484869 5.724932 141 118 136
2.048834 -1.731039 6.003624 54 37 46
2.010439 -0.682123 5.909084 122 101 124
2.025433 -0.950569 5.926475 66 49 71
1.994988 -0.010389 5.839893 69 61 83
1.994988 -0.010389 5.839893 69 61 83
2.024658 -0.710969 5.902402 42 37 56
2.038161 -1.018666 5.928185 132 110 131
1.975575 0.824791 5.776516 62 52 73
1.994671 0.391586 5.796990 94 74 99
1.975525 1.026545 5.746447 133 115 127
1.969272 1.477489 5.699431 129 111 129
1.989581 1.009338 5.736468 62 50 68
2.053192 -0.695630 5.882560 121 103 120
2.073130 -1.192550 5.923034 140 119 137
2.049496 -0.516059 5.870451 60 51 74
2.045669 -0.276838 5.843578 53 42 61
1.999518 1.034609 5.731286 130 116 132
2.006461 1.162509 5.720180 74 57 74
2.013953 0.876912 5.732762 73 64 89
1.996703 1.478409 5.686721 120 108 127
2.042097 0.258296 5.782891 75 63 90
2.092593 -1.015059 5.898721 87 66 89
2.135027 -2.002417 5.988292 56 42 58
2.032538 0.589458 5.754744 59 46 66
2.034604 0.609828 5.757104 128 108 124
2.009215 1.377796 5.680287 86 72 96
2.140981 -1.980164 5.978418 127 103 120
2.014282 1.487346 5.669077 76 60 86
2.045498 0.825780 5.730902 91 71 97
2.101358 -0.697658 5.852545 122 105 125
2.038131 1.024130 5.708278 131 114 128
2.039869 1.179425 5.695934 60 50 70
2.039869 1.179425 5.695934 60 50 70
2.122159 -0.960586 5.869140 82 67 91
2.122159 -0.960586 5.869140 82 67 91
2.154360 -1.671866 5.936528 74 52 67
2.139818 -1.357338 5.897388 89 74 95
2.106952 -0.220588 5.801596 120 107 129
2.146682 -1.319362 5.887328 90 73 100
2.125956 -0.719904 5.841317 59 48 64
2.149693 -1.224227 5.883415 83 66 76
2.104668 -0.051612 5.779952 138 123 140
2.104668 -0.051612 5.779952 138 123 140
2.082158 0.554138 5.725782 122 106 133
2.117989 -0.238362 5.800172 133 114 132
2.058571 1.404462 5.652413 131 114 137
2.129548 -0.267423 5.793892 102 84 103
2.129576 -0.085667 5.775296 76 58 81
2.071716 1.479635 5.638290 72 56 77
2.135163 -0.037596 5.770743 63 51 61
2.111258 0.599759 5.706987 124 106 125
2.139324 -0.065224 5.763736 126 105 125
2.139324 -0.065224 5.763736 126 105 125
2.107831 0.820977 5.690113 88 69 91
2.127362 0.265072 5.730222 124 104 119
2.227350 -2.005743 5.935068 88 64 73
2.162613 -0.285023 5.781740 39 30 38
2.124640 0.648868 5.691380 78 65 89
2.114506 1.014928 5.657175 124 109 130
2.147910 0.249155 5.728276 143 118 130
2.100613 1.481047 5.614769 127 111 132
2.140357 0.591435 5.692366 130 116 130
2.163347 0.218908 5.722364 46 38 48
2.186686 -0.014172 5.733513 129 110 129
2.149271 1.173965 5.628017 54 48 69
2.188506 0.227628 5.702188 134 117 134
2.206173 -0.026947 5.720577 60 49 65
2.153243 1.391249 5.596008 141 122 141
2.196768 0.377567 5.687610 75 57 75
2.208150 0.528517 5.649426 132 117 145
2.201206 0.801658 5.629871 119 106 129
2.176744 1.503479 5.570266 78 65 84
2.181085 1.479105 5.569033 150 126 137
2.200423 0.983411 5.606421 64 48 65
2.200423 0.983411 5.606421 64 48 65
2.219908 0.573644 5.648240 70 56 78
2.192695 1.444502 5.571083 60 53 57
2.228606 0.805212 5.611397 72 56 77
2.213738 1.440970 5.553525 112 92 97
2.213738 1.440970 5.553525 112 92 97
2.249710 0.809000 5.605899 75 59 75
2.292409 -0.263640 5.686957 126 107 128
2.231565 1.460934 5.540971 139 121 137
2.231944 1.459261 5.538682 139 121 137
2.264264 0.984759 5.573675 69 56 75
2.264264 0.984759 5.573675 69 56 75
2.265268 1.153851 5.546418 73 60 74
2.290647 1.170447 5.542412 69 55 74
2.326480 0.215581 5.610334 126 108 130
2.239675 1.780166 5.408373 93 83 99
2.249031 1.666974 5.416967 122 107 116
2.293004 1.432670 5.512378 139 113 117
2.290927 1.413079 5.505399 60 50 71
2.258509 1.640602 5.411719 28 16 15
2.325138 0.822051 5.547868 126 111 131
2.257115 1.764503 5.396371 23 16 11
2.303533 1.372649 5.499090 121 101 122
2.354369 0.152655 5.599723 129 109 133
2.269581 1.614869 5.405126 101 92 101
2.321140 1.393443 5.488306 66 50 69
2.280936 1.749118 5.383835 239 172 151
2.284755 1.650039 5.390075 252 183 164
2.286661 1.652188 5.392150 252 183 164
2.328889 1.374683 5.481526 131 112 135
2.330704 1.420066 5.480722 58 44 60
2.294966 1.624778 5.390215 99 79 90
2.415149 -0.385567 5.629336 75 63 87
2.394595 0.149117 5.578125 127 109 128
2.394595 0.149117 5.578125 127 109 128
2.372685 0.993863 5.498664 123 111 136
2.376205 1.157017 5.482893 120 107 132
2.361600 1.654938 5.341365 40 23 16
2.360826 1.743387 5.320866 35 20 15
2.360826 1.743387 5.320866 35 20 15
2.417458 1.789145 5.282954 68 64 66
2.427834 1.630537 5.296080 254 185 165
2.446886 1.579630 5.292349 137 123 133
2.456878 1.615926 5.277090 29 16 15
2.469405 1.761844 5.251602 22 16 11
2.841734 1.006826 5.623765 104 69 64
2.833775 1.244259 5.605070 41 23 25
2.969786 -0.186530 5.773317 172 125 114
2.857936 1.166463 5.565248 106 71 53
2.871789 1.240613 5.532670 79 39 28
2.871789 1.240613 5.532670 79 39 28
-2.673837 1.090670 5.723188 204 164 146
-2.645579 1.229502 5.728810 100 72 63
-2.652572 1.024888 5.752592 115 88 74
-2.638514 0.886229 5.783134 120 88 84
-2.642142 0.436981 5.851008 128 100 98
-2.629130 0.610338 5.830144 94 77 92
-2.641393 0.065110 5.909316 106 71 70
-2.643229 -0.073699 5.933332 148 106 93
-2.575967 1.011000 5.799661 54 35 40
-2.623447 -0.640491 6.047693 114 88 108
-2.574531 0.421916 5.887620 91 65 70
-2.574531 0.421916 5.887620 91 65 70
-2.574531 0.421916 5.887620 91 65 70
-2.629068 -1.187799 6.155415 99 73 83
-2.611524 -0.910770 6.123643 113 85 99
-2.509443 1.009047 5.829572 132 107 116
-2.591962 -0.802200 6.096277 87 66 84
-2.512127 0.801400 5.863549 137 112 123
-2.510128 0.610117 5.890007 97 77 90
-2.476539 0.992717 5.853085 154 120 126
-2.470878 1.030919 5.850430 67 51 62
-2.475332 0.549417 5.920112 82 64 78
-2.475332 0.549417 5.920112 82 64 78
-2.512257 -0.715959 6.122024 87 73 90
-2.476880 0.033961 6.002241 126 99 112
-2.474276 0.017197 6.009159 63 46 61
-2.470141 0.049563 6.003365 63 47 56
-2.421003 1.031705 5.871627 79 59 65
-2.470521 -0.382078 6.074834 138 120 136
-2.481279 -0.719711 6.136172 71 56 75
-2.483306 -1.077208 6.204154 71 55 71
-2.472025 -0.836610 6.160978 133 114 137
-2.472025 -0.836610 6.160978 133 114 137
-2.451621 -0.391575 6.089788 64 57 69
-2.451621 -0.391575 6.089788 64 57 69
-2.432002 0.032502 6.020212 131 104 107
-2.467306 -0.857709 6.170779 65 49 66
-2.427949 0.018813 6.022485 74 55 60
-2.459338 -0.818971 6.168660 73 59 82
-2.475401 -1.368291 6.269557 71 48 58
-2.376693 1.045442 5.896422 62 52 57
-2.475275 -1.369382 6.273220 71 48 58
-2.417549 0.044501 6.028025 74 56 62
-2.432504 -0.381526 6.098020 139 120 128
-2.415990 -0.091769 6.050326 69 54 67
-2.415990 -0.091769 6.050326 69 54 67
-2.408612 -0.370234 6.100595 136 115 133
-2.405891 -0.399132 6.108394 66 54 67
-2.428065 -1.105914 6.236163 122 107 136
-2.410065 -1.110780 6.241878 119 106 130
-2.400792 -0.870982 6.205302 64 46 62
-2.400273 -1.088227 6.242662 129 111 134
-2.367668 -0.403091 6.125428 57 41 47
-2.318260 0.806124 5.951315 135 112 125
-2.310809 0.682076 5.969814 162 123 116
-2.356061 -0.412914 6.135961 126 102 122
-2.332530 0.041526 6.065795 132 106 123
-2.305353 0.581611 5.989707 37 21 18
-2.354684 -0.738479 6.195069 71 59 73
-2.354684 -0.738479 6.195069 71 59 73
-2.343110 -0.563425 6.171147 63 43 52
-2.290744 0.659059 5.982894 45 26 19
-2.290744 0.659059 5.982894 45 26 19
-2.336107 -0.689243 6.197413 58 46 58
-2.342535 -1.133530 6.274462 121 105 125
-2.334015 -0.884011 6.230268 57 46 62
-2.256459 1.057229 5.941774 60 47 58
-2.256459 1.057229 5.941774 60 47 58
-2.339117 -1.102440 6.270422 139 120 137
-2.317448 -0.599143 6.181312 140 124 137
-2.265591 0.708608 5.985477 244 174 157
-2.265591 0.708608 5.985477 244 174 157
-2.265591 0.708608 5.985477 244 174 157
-2.268285 0.638379 5.994558 252 182 166
-2.268285 0.638379 5.994558 252 182 166
-2.288342 0.114602 6.070453 66 54 68
-2.288342 0.114602 6.070453 66 54 68
-2.264901 0.610374 6.000697 253 182 166
-2.320513 -1.138382 6.284206 119 99 121
-2.244601 0.661170 5.999470 45 28 18
-2.303120 -0.851948 6.242381 82 76 97
-2.288497 -0.574297 6.196120 55 41 52
-2.284153 -0.642228 6.203116 121 104 124
-2.257428 0.048491 6.093712 56 43 51
-2.225179 0.824402 5.986203 56 41 52
-2.262372 -0.112238 6.118628 70 47 60
-2.287861 -0.859595 6.242285 69 60 85
-2.272017 -0.413427 6.166647 72 48 56
-2.207882 1.203975 5.946434 58 46 59
-2.224602 0.672710 6.006931 165 121 119
-2.227640 0.581298 6.022574 47 24 17
-2.218057 0.756590 5.997050 108 85 99
-2.203194 1.058767 5.961384 67 52 59
-2.274503 -0.897050 6.257929 55 46 60
-2.249788 -0.404180 6.168043 133 108 119
-2.213746 0.553656 6.036063 108 91 105
-2.254426 -0.578232 6.205282 63 49 61
-2.230216 -0.417298 6.184283 66 41 48
-2.227873 -0.404572 6.184035 132 108 120
-2.244660 -1.001435 6.290118 64 56 72
-2.205143 0.041064 6.119591 83 63 80
-2.206429 -0.403414 6.189428 134 109 128
-2.122919 1.420574 5.911327 41 37 36
-2.122919 1.420574 5.911327 41 37 36
-2.191541 -0.105911 6.140452 130 109 130
-2.191456 -0.106351 6.141507 130 109 130
-2.201686 -0.421560 6.193228 66 47 53
-2.226720 -1.296898 6.355114 141 122 136
-2.166704 0.229642 6.100057 66 53 66
-2.166704 0.229642 6.100057 66 53 66
-2.176588 -0.122557 6.152784 65 49 65
-2.142352 0.667760 6.040468 137 114 121
-2.164802 0.029192 6.136250 60 42 52
-2.136736 0.570567 6.054855 122 106 123
-2.122532 0.823809 6.025714 59 47 58
-2.190815 -1.324567 6.371812 79 60 81
-2.154918 -0.426257 6.213032 78 56 71
-2.132955 0.026367 6.147198 46 35 42
-2.132955 0.026367 6.147198 46 35 42
-2.094052 0.935923 6.018297 54 41 50
-2.103871 0.563329 6.068761 73 57 57
-2.114254 0.304840 6.110314 61 48 62
-2.126989 -0.143852 6.175036 136 109 128
-2.125158 -0.288646 6.197449 70 52 69
-2.126692 -0.414109 6.215459 133 108 124
-2.111258 0.029554 6.152038 47 38 46
-2.111258 0.029554 6.152038 47 38 46
-2.122782 -0.436874 6.224912 57 46 54
-2.122782 -0.436874 6.224912 57 46 54
-2.134395 -1.009618 6.327738 71 62 84
-2.103475 -0.279830 6.205382 129 107 130
-2.106459 -0.421237 6.229390 69 45 51
-2.073291 0.532239 6.084873 53 43 55
-2.085141 0.030404 6.160710 51 41 52
-2.101346 -1.018091 6.342145 67 55 78
-2.047148 0.418342 6.112714 50 42 53
-2.047148 0.418342 6.112714 50 42 53
-2.083681 -0.751104 6.295247 63 53 76
-2.056474 0.030318 6.170872 51 39 52
-2.071318 -0.451540 6.246827 62 50 62
-2.043469 0.255889 6.134969 131 107 120
-2.086885 -1.122846 6.365510 66 49 59
-2.086885 -1.122846 6.365510 66 49 59
-2.089095 -1.374140 6.422434 45 42 63
-2.048475 -0.144194 6.196711 76 53 69
-2.048475 -0.144194 6.196711 76 53 69
-2.074942 -1.201839 6.383679 64 56 77
-2.074942 -1.201839 6.383679 64 56 77
-2.029895 0.054102 6.175748 122 102 124
-2.013853 0.417537 6.117596 46 38 45
-2.030529 -0.308472 6.234223 50 42 60
-2.030307 -0.308532 6.235984 50 42 60
-2.023296 -0.147634 6.209309 77 53 67
-2.023296 -0.147634 6.209309 77 53 67
-2.025963 -0.291511 6.234954 127 106 124
-1.991303 0.354698 6.142570 112 93 112
-2.037945 -1.380680 6.435252 56 46 64
-1.911095 0.770985 5.904819 36 28 40
-1.911095 0.770985 5.904819 36 28 40
-1.987957 -0.150667 6.223180 71 52 64
-1.982422 0.019750 6.198077 65 50 64
-2.006127 -0.826149 6.337674 64 44 52
-1.893793 0.858905 5.897385 40 39 46
-1.993854 -0.450416 6.271473 80 59 76
-1.989829 -0.438086 6.268925 142 117 131
-1.947627 0.659392 6.107701 45 36 47
-1.960811 -0.151586 6.231800 58 45 60
-1.983907 -1.022818 6.384844 60 47 70
-1.974218 -0.874449 6.350034 67 48 61
-1.852059 0.754028 5.915389 36 31 48
-1.973023 -1.395990 6.453568 49 41 55
-1.925634 0.293329 6.169486 36 30 41
-1.952446 -0.830282 6.346100 58 44 52
-1.839977 0.863146 5.909015 47 37 70
-1.945657 -0.800935 6.342877 108 96 122
-1.947910 -1.028011 6.382256 83 71 88
-1.922601 -0.135489 6.235217 125 101 123
-1.932634 -0.457129 6.290539 53 43 58
-1.824439 0.847803 5.917473 40 35 63
-1.942557 -1.405484 6.462231 51 41 60
-1.942557 -1.405484 6.462231 51 41 60
-1.905897 -0.116207 6.235729 89 64 72
-1.906214 -0.149629 6.241452 46 37 50
-1.906214 -0.149629 6.241452 46 37 50
-1.835953 0.672511 5.991483 121 102 156
-1.811858 0.783635 5.936818 35 34 34
-1.806181 0.705885 5.976707 53 56 78
-1.876796 -0.161051 6.250703 58 46 63
-1.880551 -0.328869 6.279997 69 55 73
-1.900920 -1.409967 6.476461 54 50 72
-1.848073 0.388519 6.179298 99 89 121
-1.887416 -1.193804 6.432609 68 49 65
-1.834732 0.407926 6.171499 61 49 67
-1.862661 -0.778893 6.360978 62 54 75
-1.840238 -0.331242 6.291777 63 47 67
-1.774916 0.068364 6.070854 89 78 132
-1.735283 0.826774 5.937371 43 38 44
-1.762664 0.048718 6.078700 113 98 149
-1.762499 0.079251 6.079254 36 29 68
-1.823672 -0.769187 6.369409 134 114 126
-1.821660 -0.785393 6.374252 62 52 60
-1.829773 -1.429464 6.491482 74 63 82
-1.829773 -1.429464 6.491482 74 63 82
-1.812764 -0.669741 6.358740 78 59 74
-1.711981 0.796019 5.945242 43 32 48
-1.794067 -0.490506 6.329968 60 47 65
-1.812962 -1.544070 6.518428 134 116 130
-1.696002 0.780773 5.951273 42 33 60
-1.702109 0.540806 6.064640 86 73 109
-1.764878 -0.645954 6.365342 133 114 131
-1.759043 -0.662522 6.366438 45 38 50
-1.748160 -0.337460 6.311880 60 52 76
-1.697083 0.270377 6.113671 22 22 46
-1.657638 0.751932 5.958054 100 83 126
-1.743391 -0.498116 6.339538 60 46 58
-1.743391 -0.498116 6.339538 60 46 58
-1.745242 -0.650018 6.365033 123 104 121
-1.745996 -0.853157 6.400538 130 112 125
-1.660294 0.710453 5.997039 52 51 74
-1.644651 0.861048 5.945905 43 37 65
-1.733388 -0.871522 6.411444 52 44 56
-1.662236 0.528082 6.067118 48 42 80
-1.628551 0.876985 5.946685 53 43 77
-1.628551 0.876985 5.946685 53 43 77
-1.734810 -1.444922 6.518356 72 60 76
-1.458810 1.319978 5.340253 55 41 69
-1.644064 0.645760 6.033271 109 95 147
-1.701174 -0.175211 6.294449 77 58 77
-1.646634 0.569019 6.067008 112 96 142
-1.619517 0.784251 5.960729 101 84 129
-1.632749 0.683683 6.020258 117 101 155
-1.700154 -0.667921 6.379187 68 51 70
-1.681544 -0.177495 6.292168 79 67 89
-1.702162 -1.450033 6.525271 70 59 77
-1.692728 -1.075975 6.450959 136 118 134
-1.671624 -1.090947 6.459792 64 54 67
-1.671624 -1.090947 6.459792 64 54 67
-1.565084 0.878867 5.955625 60 54 79
-1.565475 0.778864 5.969644 65 59 79
-1.404481 1.326007 5.350297 59 43 79
-1.404920 1.275267 5.358175 60 44 74
-1.559045 0.866994 5.955383 43 37 62
-1.649889 -0.891697 6.429881 56 45 58
-1.640498 -0.812537 6.415184 59 48 71
-1.635329 -0.794427 6.411271 127 107 130
-1.628291 -0.893487 6.434272 55 44 61
-1.628291 -0.893487 6.434272 55 44 61
-1.533975 0.742698 5.981060 107 86 133
-1.528894 0.884362 5.959827 40 33 61
-1.609337 -0.810579 6.413812 65 54 69
-1.487467 1.024538 5.876473 83 69 100
-1.500465 0.916628 5.961116 52 42 76
-1.514024 0.395983 6.163912 32 26 59
-1.514024 0.395983 6.163912 32 26 59
-1.471051 0.867268 5.973408 49 39 77
-1.549725 -0.485850 6.373829 127 111 135
-1.553936 -0.875722 6.441693 133 116 137
-1.545743 -0.509401 6.380739 57 44 69
-1.543379 -0.899259 6.446518 57 49 65
-1.281244 1.585141 5.282966 59 44 69
-1.539233 -1.502112 6.563912 66 54 67
-1.444091 0.798932 5.989705 39 36 43
-1.529727 -1.124566 6.495395 60 45 65
-1.426121 1.011435 5.924595 61 55 90
-1.426121 1.011435 5.924595 61 55 90
-1.516197 -0.680256 6.414389 74 63 93
-1.498570 -0.680829 6.412938 71 57 82
-1.498570 -0.680829 6.412938 71 57 82
-1.253328 1.339037 5.345716 56 42 76
-1.465580 -0.520906 6.395185 65 50 66
-1.418709 0.528959 6.156948 38 30 60
-1.463552 -1.138409 6.504202 50 38 59
-1.466232 -1.527162 6.576744 44 33 49
-1.466232 -1.527162 6.576744 44 33 49
-1.458005 -0.957453 6.469685 80 52 64
-1.231380 1.360075 5.346472 59 44 72
-1.455409 -0.926257 6.466492 87 58 70
-1.443739 -0.519467 6.396882 64 52 70
-1.436784 -1.119527 6.502552 80 62 79
-1.427496 -1.511292 6.574352 132 108 128
-1.419512 -1.134406 6.505682 126 112 136
-1.371625 -0.809515 6.275636 86 76 131
-1.367829 -0.823454 6.276619 46 32 87
-1.413746 -1.544050 6.583480 45 34 54
-1.327893 0.793044 6.002889 54 40 77
-1.406585 -1.482012 6.572409 90 65 76
-1.395914 -1.155994 6.512494 69 58 81
-1.387567 -0.525937 6.405111 57 44 59
-1.387567 -0.525937 6.405111 57 44 59
-1.353987 -0.795372 6.284729 24 21 55
-1.352508 -0.826679 6.285053 102 91 146
-1.348288 0.528541 6.169151 34 25 60
-1.343803 0.320097 6.192503 35 27 55
-1.343803 0.320097 6.192503 35 27 55
-1.376960 -1.557217 6.590421 64 48 70
-1.279588 1.015102 5.935722 65 57 80
-1.279588 1.015102 5.935722 65 57 80
-1.154162 1.279590 5.355757 58 45 89
-1.312630 0.340863 6.198709 39 29 57
-1.312630 0.340863 6.198709 39 29 57
-1.293538 0.111421 6.235933 37 27 57
-1.293363 0.111571 6.236548 37 27 57
-1.221929 -0.634396 6.315901 29 25 50
-1.252076 -1.579116 6.604916 85 63 79
-1.202209 0.280458 6.187029 52 39 80
-1.202209 0.280458 6.187029 52 39 80
-1.201642 0.461296 6.187896 41 31 60
-1.199116 0.253878 6.187635 51 41 90
-1.205688 0.087717 6.240521 40 31 56
-1.200455 -0.009365 6.258519 41 33 59
-1.195720 0.184554 6.219807 53 46 94
-1.191194 -0.155571 6.264948 34 31 76
-1.150091 0.896483 5.989345 59 45 82
-1.178710 0.354076 6.208795 22 22 61
-1.178229 0.353463 6.210545 22 22 61
-1.010579 1.557376 5.302935 92 74 105
-1.201220 -1.585027 6.607350 85 65 85
-1.170580 0.062114 6.252431 45 40 82
-1.167136 -0.099584 6.259863 82 70 123
-0.996555 1.356786 5.340085 67 49 86
-1.168108 -1.594428 6.611088 84 67 84
-1.158036 -1.580624 6.607866 137 113 132
-1.128452 0.082778 6.253993 37 28 57
-1.128501 -0.011681 6.266841 35 27 56
-1.089454 0.878305 5.998665 58 45 85
-1.109714 0.436966 6.203705 36 28 63
-1.105969 0.335811 6.210856 26 21 44
-1.060503 1.028196 5.943033 64 53 77
-1.060503 1.028196 5.943033 64 53 77
-1.117671 -1.607746 6.612224 70 52 75
-1.117671 -1.607746 6.612224 70 52 75
-1.088923 0.292849 6.216369 36 27 58
-1.084202 0.516270 6.186587 36 31 59
-0.924235 1.565615 5.298057 99 78 117
-1.095536 -1.607228 6.618075 141 117 131
-1.028502 0.798609 6.003707 56 42 75
-1.036851 -0.515366 6.347548 32 26 53
-0.996179 0.627522 6.104117 115 99 152
-1.008521 -0.359559 6.296144 35 32 67
-0.984915 -1.392499 6.332497 106 94 145
-0.988245 -0.890925 6.295589 85 69 119
-0.851567 1.473447 5.311442 72 56 104
-0.851567 1.473447 5.311442 72 56 104
-0.978486 -1.037395 6.330966 79 68 115
-0.939265 1.005931 5.943732 60 52 74
-0.936233 0.799952 6.008790 59 45 76
-0.829521 1.367603 5.318729 66 50 84
-0.827191 1.315794 5.329480 62 46 83
-0.822105 1.446964 5.312566 63 50 97
-0.940342 0.274106 6.169110 38 30 60
-0.940342 0.274106 6.169110 38 30 60
-0.911009 0.991880 5.945367 132 112 143
-0.932450 -0.806811 6.296041 42 36 72
-0.929624 -1.104613 6.343100 85 71 124
-0.907677 -0.911865 6.293337 44 34 67
-0.902293 -0.104746 6.213926 26 23 54
-0.776035 1.318537 5.325452 65 51 89
-0.887485 0.439519 6.144774 33 24 62
-0.773113 1.371346 5.317974 69 52 92
-0.773113 1.371346 5.317974 69 52 92
-0.885325 0.535581 6.129732 37 27 64
-0.889014 0.012119 6.208613 51 38 63
-0.885502 0.271641 6.173003 55 43 77
-0.867310 -1.467238 6.365147 29 24 52
-0.867310 -1.467238 6.365147 29 24 52
-0.864676 -0.835338 6.286020 105 89 136
-0.839596 0.935473 5.983178 69 56 101
-0.857371 0.409731 6.145937 106 92 149
-0.856210 0.536075 6.129666 92 79 132
-0.856210 0.536075 6.129666 92 79 132
-0.851118 -0.736441 6.257992 110 92 145
-0.851266 -0.937825 6.300979 42 37 73
-0.814660 0.904786 5.988081 62 46 84
-0.814660 0.904786 5.988081 62 46 84
-0.828701 -0.796467 6.286811 91 76 129
-0.826760 0.538585 6.126164 44 36 65
-0.825678 0.196207 6.177389 40 31 59
-0.822213 0.438067 6.141956 32 26 59
-0.823241 0.274473 6.167647 53 42 71
-0.822029 0.093705 6.193358 35 27 57
-0.822029 0.093705 6.193358 35 27 57
-0.819303 -0.108258 6.217262 29 24 53
-0.817066 0.007133 6.212452 44 37 69
-0.809966 -0.768865 6.283528 33 27 64
-0.808560 -0.133561 6.219436 95 73 99
-0.794833 0.643597 6.082366 52 41 92
-0.797665 -0.913715 6.291479 47 39 71
-0.799652 0.442748 6.140725 83 72 128
-0.793990 -0.760096 6.293496 29 24 63
-0.783387 -0.979191 6.299848 92 76 122
-0.782121 -0.934984 6.300217 93 79 132
-0.778626 -0.693635 6.277477 96 84 134
-0.778338 0.436205 6.142341 35 25 60
-0.768640 0.268556 6.164042 39 31 59
-0.762668 -0.251220 6.237424 23 23 51
-0.762668 -0.251220 6.237424 23 23 51
-0.740722 -0.319917 6.216218 28 25 56
-0.741008 0.469713 6.133681 93 80 133
-0.712235 -1.459918 6.383259 101 88 141
-0.712235 -1.459918 6.383259 101 88 141
-0.706324 -0.776038 6.324590 40 32 61
-0.706324 -0.776038 6.324590 40 32 61
-0.703754 -0.548802 6.286633 41 34 62
-0.690348 -1.489351 6.381005 45 35 65
-0.680826 -1.475871 6.378645 50 34 72
-0.679275 -1.348766 6.338319 25 24 45
-0.689672 -0.416940 6.265393 25 19 49
-0.657083 1.035394 5.924870 58 51 72
-0.676938 -0.390573 6.267560 23 21 47
-0.663455 -0.422774 6.270850 81 68 113
-0.658287 -0.716663 6.306003 42 33 62
-0.658287 -0.716663 6.306003 42 33 62
-0.648929 -0.501167 6.274430 41 33 68
-0.647298 -0.029606 6.197916 113 122 148
-0.647115 -0.048559 6.202165 122 134 157
-0.644480 -0.067069 6.205386 119 132 153
-0.641276 -0.454821 6.274863 24 25 55
-0.611021 0.998652 5.927594 115 102 133
-0.619714 0.441054 6.079145 86 100 109
-0.625876 -0.486195 6.276540 79 66 118
-0.625876 -0.486195 6.276540 79 66 118
-0.612215 0.801853 5.987159 57 46 85
-0.597825 0.777192 5.991210 191 146 132
-0.602545 -0.753194 6.312028 43 34 64
-0.602545 -0.753194 6.312028 43 34 64
-0.590353 0.821417 5.983208 58 46 80
-0.598892 -0.265362 6.245521 19 18 39
-0.519741 1.333099 5.284039 58 49 99
-0.595216 -0.151051 6.217909 98 105 134
-0.581513 0.306631 6.045566 203 196 200
-0.573227 -1.482140 6.360085 101 87 142
-0.575737 0.339160 6.048369 14 16 21
-0.583489 -0.255034 6.248321 52 68 91
-0.574946 -0.727981 6.306366 43 34 62
-0.572061 -0.163718 6.215458 113 123 147
-0.490498 1.644104 5.202224 55 50 94
-0.562505 -1.159065 6.334163 98 80 133
-0.495696 1.408364 5.268834 64 50 100
-0.569464 -0.539362 6.276867 70 62 114
-0.492558 1.308262 5.283066 55 44 94
-0.492558 1.308262 5.283066 55 44 94
-0.541491 0.770214 5.983288 198 148 128
-0.540268 0.391105 6.044373 32 43 71
-0.547946 -0.293537 6.234041 95 112 134
-0.466601 1.612388 5.203273 147 120 165
-0.533464 0.272658 6.068302 112 112 120
-0.533464 0.272658 6.068302 112 112 120
-0.530266 0.366900 6.043274 174 187 192
-0.530266 0.366900 6.043274 174 187 192
-0.535442 -0.305379 6.229591 33 28 63
-0.520705 -1.554568 6.357104 117 99 145
-0.516796 1.037378 5.912341 55 47 60
-0.520433 -0.293957 6.228614 127 141 158
-0.513327 0.283376 6.069132 93 93 101
-0.513327 0.283376 6.069132 93 93 101
-0.444424 1.648654 5.192233 50 45 79
-0.509850 -0.040847 6.171571 64 95 125
-0.509850 -0.040847 6.171571 64 95 125
-0.506709 0.064157 6.137784 112 135 155
-0.500716 -0.073701 6.186662 39 63 96
-0.483295 -1.514437 6.367201 49 41 85
-0.493938 0.482099 6.076250 28 27 63
-0.424728 1.651243 5.186143 51 44 84
-0.486128 0.328436 6.055135 118 118 130
-0.480637 0.347345 6.050419 144 156 165
-0.480758 0.276088 6.071805 177 194 202
-0.476978 0.074298 6.138418 137 162 178
-0.413184 1.616718 5.193589 157 128 172
-0.471677 -0.746887 6.299016 32 32 69
-0.463195 0.392697 6.049227 24 29 44
-0.467704 -0.270676 6.222089 98 122 142
-0.461187 0.320952 6.063774 208 220 224
-0.450881 -1.506220 6.365105 102 84 141
-0.456640 0.061931 6.138437 73 78 97
-0.457323 0.168060 6.159226 77 102 121
-0.445332 0.899817 5.955051 74 58 86
-0.445332 0.899817 5.955051 74 58 86
-0.393868 1.106220 5.271988 89 79 130
-0.515453 0.942042 6.944919 63 49 83
-0.441664 0.293496 6.074833 164 171 183
-0.443579 0.079942 6.141331 127 148 165
-0.431942 0.908980 5.953679 67 50 81
-0.432889 0.344466 6.067801 113 122 136
-0.437260 0.167258 6.163142 91 116 137
-0.426448 -0.579200 6.266982 73 65 113
-0.422981 0.424494 6.046721 38 37 60
-0.428352 0.188258 6.166477 130 162 177
-0.416145 0.946354 5.948956 79 63 110
-0.419744 0.078134 6.144873 138 160 178
-0.409540 0.806101 5.968208 121 101 147
-0.361043 1.581210 5.219907 165 136 183
-0.414368 0.161171 6.167325 81 103 122
-0.411236 -0.250764 6.221582 20 22 43
-0.407339 0.356262 6.074081 156 170 179
-0.394509 0.052659 6.152052 65 73 99
-0.392073 0.150416 6.175436 66 88 108
-0.379488 0.418409 6.057432 143 121 135
-0.379640 -0.005583 6.175070 180 208 215
-0.374043 0.061121 6.157321 104 122 141
-0.376163 0.135488 6.181239 50 66 84
-0.352891 -1.181278 6.310306 101 77 110
-0.360554 0.457660 6.058060 22 18 29
-0.358210 0.373114 6.072188 149 157 168
-0.315343 1.107649 5.290884 101 85 133
-0.337190 -1.534557 6.349790 38 28 59
-0.312338 1.463846 5.259348 114 89 123
-0.345179 1.039885 5.886502 51 43 54
-0.346702 0.781430 5.958915 58 47 81
-0.325654 -0.780319 6.281399 38 31 63
-0.326624 -0.537350 6.249021 23 24 50
-0.307839 -1.524373 6.346365 94 83 139
-0.319978 0.403897 6.056052 81 85 105
-0.283652 1.465595 5.269299 83 63 102
-0.298786 -1.194631 6.299112 99 81 134
-0.285245 0.424043 6.050378 25 22 44
-0.265217 -1.541359 6.331151 41 27 59
-0.278390 -0.485948 6.235994 20 22 52
-0.280823 0.384578 6.063392 94 94 116
-0.267430 -1.011279 6.244298 27 23 38
-0.250348 1.386881 5.287946 75 56 88
-0.259837 -1.414843 6.295067 27 23 44
-0.267264 0.949225 5.926239 63 48 87
-0.236307 1.649593 5.215465 75 64 117
-0.226792 1.595699 5.245998 117 97 133
-0.235407 -1.020304 6.239087 39 29 57
-0.242461 0.899001 5.926286 77 62 91
-0.240748 0.890845 5.928883 67 49 89
-0.212648 1.411852 5.284583 72 54 93
-0.234553 0.812981 5.935801 56 48 58
-0.234191 0.450398 6.077444 48 47 77
-0.225052 -0.589640 6.234325 32 25 51
-0.217750 -0.953443 6.230714 85 69 104
-0.217750 -0.953443 6.230714 85 69 104
-0.229382 0.620261 6.019399 128 110 161
-0.222534 0.650722 6.007822 126 110 164
-0.197431 1.647935 5.220775 75 61 108
-0.221144 0.462044 6.068013 99 88 142
-0.192515 -1.014006 6.239265 42 30 74
-0.186277 0.247217 6.100094 40 30 68
-0.186277 0.247217 6.100094 40 30 68
-0.172611 -0.861655 6.226079 93 78 130
-0.177385 0.066762 6.121951 37 28 63
-0.176526 0.418282 6.074233 33 22 66
-0.176526 0.418282 6.074233 33 22 66
-0.160451 1.376364 5.298667 78 57 108
-0.174917 0.805161 5.926267 45 35 54
-0.153538 0.424741 6.068368 88 79 134
-0.139247 1.501046 5.284606 67 50 86
-0.138206 1.210367 5.325376 80 63 108
-0.138206 1.210367 5.325376 80 63 108
-0.149892 0.821025 5.918799 48 38 69
-0.132277 -0.901574 6.214362 49 38 78
-0.133246 1.406730 5.298441 75 57 114
-0.132480 -0.422427 6.197639 71 64 121
-0.133972 0.323290 6.079405 44 36 70
-0.116595 -1.001551 6.214977 35 27 52
-0.129444 -0.027215 6.130327 47 38 68
-0.129444 -0.027215 6.130327 47 38 68
-0.114269 -0.974884 6.214550 89 72 121
-0.127158 0.247590 6.094855 57 43 83
-0.123842 0.820142 5.912547 114 93 140
-0.123842 0.820142 5.912547 114 93 140
-0.106342 -1.023394 6.211263 107 91 145
-0.106342 -1.023394 6.211263 107 91 145
-0.095025 -1.011608 6.215536 98 85 131
-0.105028 -0.115241 6.140538 33 30 54
-0.090212 1.307057 5.317529 81 59 110
-0.096118 0.520304 6.043752 91 80 135
-0.095938 0.516775 6.044302 93 81 135
-0.095938 0.516775 6.044302 93 81 135
-0.095303 0.819525 5.909719 55 40 73
-0.071824 -0.921510 6.203267 104 90 136
-0.081934 1.496972 5.292640 90 67 110
-0.064295 -1.219667 6.257229 106 86 134
-0.062915 -1.027999 6.211732 40 35 73
-0.073871 0.801946 5.909333 49 37 68
-0.069687 1.643939 5.237777 75 62 101
-0.064354 1.332148 5.318099 75 56 110
-0.064354 1.332148 5.318099 75 56 110
-0.063283 0.520289 6.035611 38 31 62
-0.058339 0.248187 6.074818 58 45 76
-0.056149 0.057789 6.104753 37 27 63
-0.056149 0.057789 6.104753 37 27 63
-0.054017 -0.114082 6.127500 41 36 65
-0.059107 0.415652 6.051987 31 24 65
-0.053431 -0.114432 6.128639 41 36 65
-0.057348 0.321172 6.068588 49 37 77
-0.053055 -0.033366 6.121447 50 39 76
-0.036203 -0.879665 6.194725 89 74 130
-0.036203 -0.879665 6.194725 89 74 130
-0.036078 0.420323 6.046420 96 83 139
-0.012849 -1.030001 6.195466 104 89 138
-0.019929 1.642870 5.242059 78 67 111
-0.012926 0.413993 6.042238 36 26 67
0.008359 -0.448545 6.144418 80 71 131
0.013448 -0.356204 6.110894 89 74 112
0.020415 1.456532 5.313477 67 48 84
0.029390 0.797855 5.883922 113 97 141
0.043070 -0.379749 6.110008 30 29 62
0.071803 -1.732980 6.331730 114 101 153
0.074757 -1.505379 6.227967 72 60 111
0.083631 -1.714254 6.338892 29 28 81
0.036484 1.434427 5.315898 134 112 159
0.049933 0.781073 5.883214 48 41 61
0.071199 0.745564 5.919564 135 115 163
0.097059 0.892761 5.850730 42 35 58
0.097059 0.892761 5.850730 42 35 58
0.111278 1.316460 5.334216 72 54 89
0.111278 1.316460 5.334216 72 54 89
0.135005 0.722305 5.965095 58 50 74
0.180630 -1.486839 6.231376 66 57 101
0.154773 0.127623 6.108534 41 32 67
0.160387 -0.091316 6.134084 50 40 68
0.156100 0.291803 6.082319 37 28 69
0.162318 -0.090807 6.137360 50 40 68
0.135554 1.638016 5.258242 85 72 119
0.188875 -1.049206 6.222233 25 19 42
0.177625 0.283908 6.071070 56 45 75
0.196355 -0.459305 6.188826 45 42 82
0.183221 0.905822 5.831017 50 37 75
0.183221 0.905822 5.831017 50 37 75
0.199854 0.292102 6.069918 35 28 60
0.200794 0.887081 5.828787 51 38 72
0.208551 0.807863 5.836781 57 49 62
0.252815 -0.407004 6.162637 39 30 56
0.273280 0.029953 6.091922 45 33 71
0.268335 0.479938 6.023736 42 33 73
0.295548 0.004672 6.089468 41 32 67
0.301977 0.286050 6.035691 25 20 45
0.303367 0.397991 6.022902 42 34 64
0.304666 0.398209 6.024991 42 34 64
0.293674 0.816611 5.809556 49 42 63
0.326801 0.004942 6.075300 45 35 60
0.337362 -0.103565 6.092975 43 34 63
0.329832 0.421316 6.014709 40 32 64
0.331376 0.229729 6.001289 101 89 137
0.333276 0.197582 6.007086 62 52 106
0.387768 -1.716417 6.431746 85 71 102
0.321517 0.841101 5.804822 49 43 60
0.349668 0.118111 6.046818 60 51 100
0.351884 0.178404 6.010696 117 103 158
0.352838 0.197918 5.998007 74 59 112
0.355574 0.227688 5.995020 100 89 137
0.357934 0.243764 5.996134 40 35 83
0.367776 -0.020316 6.071770 38 35 82
0.376765 -0.047113 6.069153 116 100 146
0.390322 -0.805947 6.134189 35 31 60
0.378351 0.177142 6.018432 107 92 149
0.414721 -0.108123 6.072864 41 34 64
0.414720 0.000156 6.055488 41 33 63
0.414720 0.000156 6.055488 41 33 63
0.410123 0.416353 5.995374 37 28 68
0.410123 0.416353 5.995374 37 28 68
0.435900 -0.507235 6.074057 30 25 51
0.447153 -1.029888 6.091557 103 89 141
0.440890 -0.138558 6.070302 55 41 75
0.439247 0.143218 6.016500 56 47 96
0.440331 0.283727 5.998371 32 26 62
0.464919 0.186908 6.003783 59 48 97
0.450678 0.803732 5.760745 61 49 82
0.455450 0.903329 5.746280 62 48 92
0.475753 0.769022 5.763514 57 43 81
0.475753 0.769022 5.763514 57 43 81
0.562678 -1.745209 6.381273 85 68 95
0.551863 -1.289005 6.308616 144 121 134
0.479985 0.936277 5.731130 67 56 101
0.564317 -1.307013 6.307336 71 54 77
0.524274 0.019032 6.014545 40 31 58
0.506718 0.903285 5.727380 48 40 74
0.520746 0.737197 5.751226 111 93 143
0.602030 -1.448279 6.318206 87 70 93
0.536358 0.728059 5.742597 137 116 148
0.519504 1.536141 5.606933 72 62 89
0.519504 1.536141 5.606933 72 62 89
0.520597 1.555059 5.589970 126 105 150
0.565928 0.250594 5.965273 38 28 68
0.537653 1.042654 5.656043 86 72 125
0.547636 0.767920 5.732885 47 41 63
0.548229 0.883040 5.713923 47 43 67
0.559748 0.727393 5.729505 141 121 153
0.583199 0.485858 5.924957 38 29 64
0.658549 -1.765853 6.353249 71 47 63
0.658549 -1.765853 6.353249 71 47 63
0.667498 -1.754957 6.348264 129 109 119
0.667498 -1.754957 6.348264 129 109 119
0.677341 -1.452885 6.292103 138 117 133
0.679743 -1.429106 6.288023 82 63 84
0.599432 1.401571 5.609726 80 66 120
0.699961 -1.352913 6.262821 141 126 152
0.704032 -1.448965 6.285029 92 69 85
5.043389 6.002874 46.263538 36 31 48
0.705961 -1.326645 6.257889 92 71 103
0.612227 1.276845 5.626498 45 43 53
0.726633 -1.417605 6.272838 67 48 70
0.636950 0.895283 5.683038 55 44 91
0.628664 1.346320 5.607671 27 26 38
0.643125 0.777793 5.694378 108 92 139
0.630189 1.320616 5.610355 87 72 123
0.671695 0.481760 5.896375 37 28 65
0.738910 -1.447066 6.272558 73 55 68
0.750394 -1.592376 6.288462 90 67 100
0.654189 0.886413 5.677065 64 56 81
0.654988 0.877331 5.678691 52 41 77
0.768029 -1.792804 6.314045 79 70 106
0.653660 1.363895 5.591528 36 30 65
0.697888 0.455955 5.891636 43 34 77
