ply
		format ascii 1.0
		element vertex 12202
		property float x
		property float y
		property float z
		property uchar blue
		property uchar green
		property uchar red
		end_header
-399.738717 251.991105 1542.644215 58 51 56
-413.485527 -75.598723 1586.400318 135 116 132
-409.338665 -9.278553 1576.104259 130 104 119
-399.571157 200.008392 1548.163319 100 76 87
-399.571157 200.008392 1548.163319 100 76 87
-402.657652 107.940829 1561.763668 70 48 57
-417.731810 -245.799494 1608.072090 109 95 125
-415.119743 -240.740108 1607.339287 131 110 133
-392.939305 253.782749 1533.981800 117 96 109
-401.821804 18.632708 1566.132164 135 111 125
-401.814318 18.619221 1566.153908 135 111 125
-406.957912 -110.442054 1581.733036 79 57 71
-402.706671 -85.009259 1576.519489 123 98 119
-404.392290 -132.800651 1583.752823 77 61 73
-403.865099 -159.407628 1586.553860 67 59 71
-403.865099 -159.407628 1586.553860 67 59 71
-405.007696 -192.152917 1589.403534 73 62 79
-389.671969 193.812275 1532.455444 133 107 120
-389.852953 179.289973 1534.281254 116 93 100
-390.566254 145.632744 1540.364361 130 105 107
-402.819777 -182.278574 1587.203884 88 82 98
-388.080120 322.682619 1492.097759 50 49 50
-399.445987 -147.953367 1582.875729 52 42 56
-404.914474 -246.911621 1588.634205 119 102 126
-403.032398 -240.785003 1591.626167 135 114 134
-387.737131 142.171395 1537.081528 33 21 17
-386.629438 176.739275 1530.757523 28 15 15
-400.434160 -191.869330 1585.983753 55 45 60
-397.692466 -156.629074 1583.520699 118 95 120
-397.692466 -156.629074 1583.520699 118 95 120
-379.493618 303.881407 1510.145855 72 55 61
-396.297765 -126.529181 1570.812130 136 119 135
-397.208285 -147.820795 1572.614956 51 40 56
-398.270535 -193.328166 1578.618908 112 103 121
-388.811135 20.491050 1550.326920 69 53 66
-378.112268 283.733606 1512.821770 129 107 109
-377.463961 305.507994 1507.308006 125 112 118
-386.955118 35.328877 1544.387817 63 50 66
-386.955118 35.328877 1544.387817 63 50 66
-378.072643 223.322105 1515.188313 140 109 117
-380.002451 169.334567 1522.253513 242 171 157
-380.002451 169.334567 1522.253513 242 171 157
-389.601350 -120.662391 1567.642975 50 35 45
-379.891014 147.251892 1526.378250 251 180 166
-391.461015 -184.681296 1573.060894 66 58 80
-389.511442 -135.991335 1566.380119 122 106 126
-378.008580 128.195071 1530.829811 54 44 56
-374.352908 245.043874 1509.636497 123 99 112
-382.371068 -16.269805 1547.368526 63 46 58
-370.489049 279.017782 1506.657028 60 47 52
-380.924392 20.078515 1540.605164 48 34 43
-380.924392 20.078515 1540.605164 48 34 43
-380.924392 20.078515 1540.605164 48 34 43
-376.076865 157.940733 1519.116974 45 27 20
-388.035035 -179.843020 1570.298576 133 119 136
-381.977987 -18.249191 1546.385288 95 75 96
-375.481796 132.836437 1523.309612 116 95 108
-382.609248 -81.454706 1547.257233 130 105 118
-372.809815 139.369774 1519.434929 45 26 20
-373.999763 61.756486 1533.527470 75 59 70
-370.531726 178.392959 1511.197090 107 86 101
-383.017898 -170.849490 1563.310051 65 50 64
-319.465423 172.251976 1710.518456 96 69 72
-370.674300 156.074059 1514.828682 104 64 64
-370.676303 162.194455 1512.848663 83 47 47
-383.805156 -214.686084 1567.682648 54 48 68
-374.826717 18.367229 1534.777355 83 63 78
-366.450500 245.324969 1500.283527 63 46 53
-370.567083 132.804799 1516.418839 109 89 103
-364.084554 302.559257 1492.280483 59 50 58
-377.761722 -84.568036 1548.468208 72 49 54
-377.476931 -81.699520 1546.809673 129 104 121
-370.454597 17.877044 1531.651783 84 60 75
-363.415909 188.712227 1504.254055 111 95 108
-373.119593 -81.303674 1542.890167 130 108 126
-372.916746 -85.015321 1539.872742 60 45 48
-362.077785 190.464914 1502.280140 59 47 59
-369.506979 -14.785230 1528.429031 129 108 127
-372.580147 -154.214442 1549.505424 56 48 71
-362.706923 59.454316 1516.568756 65 54 70
-362.706923 59.454316 1516.568756 65 54 70
-362.774467 33.099505 1522.679901 73 58 71
-364.498162 3.355537 1523.837852 75 53 67
-364.498162 3.355537 1523.837852 75 53 67
-362.755251 14.793703 1523.945141 57 39 45
-356.240988 156.088531 1499.598026 132 108 122
-355.165362 317.735600 1453.968620 40 35 35
-355.165362 317.735600 1453.968620 40 35 35
-363.414145 -85.870135 1533.001232 70 55 64
-355.056310 126.047683 1503.580856 50 40 53
-357.671881 72.661972 1507.857132 125 103 115
-357.168341 13.951853 1516.079426 44 31 42
-357.168341 13.951853 1516.079426 44 31 42
-353.562450 92.384660 1502.929211 74 57 66
-353.562450 92.384660 1502.929211 74 57 66
-352.123904 75.077766 1505.932522 58 46 61
-359.299684 -82.261187 1521.776772 132 107 121
-363.184333 -212.698960 1543.049812 69 57 81
-357.887006 -87.682790 1525.021362 55 45 53
-359.541583 -127.129066 1529.460049 70 58 78
-349.996591 131.733692 1493.105602 72 55 56
-346.659541 213.067174 1481.434727 50 40 47
-353.661203 14.605185 1509.476471 43 37 45
-353.661203 14.605185 1509.476471 43 37 45
-350.542617 75.537968 1500.417137 51 38 57
-355.015826 -77.455467 1519.557858 85 60 67
-353.848553 -53.072327 1515.762901 131 106 128
-346.063852 153.233385 1487.391090 70 52 68
-344.510221 166.037250 1485.794163 55 46 63
-357.096839 -213.600349 1536.785126 65 56 78
-349.092913 14.616834 1503.437233 50 41 53
-350.582385 -84.670562 1518.382168 129 102 119
-352.360296 -155.478609 1525.724125 56 50 75
-355.095959 -235.552788 1536.322975 63 46 58
-355.095959 -235.552788 1536.322975 63 46 58
-339.743638 150.970745 1483.454323 61 44 57
-336.510396 241.799188 1470.238876 103 86 99
-349.549794 -89.897162 1511.578178 61 47 59
-337.751651 210.980272 1472.258091 55 42 53
-335.948682 244.352794 1467.391682 45 36 42
-353.307652 -252.205014 1536.215496 60 50 73
-342.901969 14.316207 1501.256275 48 38 52
-342.299771 98.136109 1479.500198 46 39 53
-340.688658 28.446233 1498.067856 74 59 73
-340.796256 63.271290 1487.889957 128 104 118
-343.364191 -23.495990 1500.119305 70 47 64
-343.364191 -23.495990 1500.119305 70 47 64
-337.022948 150.803971 1476.087666 65 48 61
-334.956741 166.379321 1472.868443 51 41 54
-349.194837 -249.050546 1530.079651 118 104 132
-332.285690 209.333992 1468.873215 51 37 48
-339.051795 19.272827 1491.912270 119 99 121
-340.622735 -59.065080 1502.571201 46 37 54
-339.914036 -55.260038 1500.776005 128 107 129
-329.348564 240.013242 1460.743999 96 80 92
-338.858080 -24.232575 1495.739746 74 50 65
-338.858080 -24.232575 1495.739746 74 50 65
-333.789396 97.769064 1481.067371 43 35 43
-336.689281 11.690091 1492.923641 46 37 48
-328.452063 242.312884 1459.624386 37 30 40
-328.452063 242.312884 1459.624386 37 30 40
-331.371331 83.726406 1475.018215 111 92 109
-338.225484 -170.261312 1514.774609 68 48 54
-339.108086 -173.755670 1512.452984 118 94 113
-330.071807 95.571822 1474.439812 41 34 44
-334.808874 -59.325743 1492.537880 71 55 81
-332.075858 -25.016406 1491.022873 65 48 62
-334.306860 -86.559862 1497.243023 141 116 130
-329.937935 11.463693 1486.726379 64 51 67
-321.118999 277.765250 1447.100258 105 87 92
-338.407755 -254.523611 1519.902802 57 49 75
-335.545826 -211.023378 1515.477180 52 44 64
-323.949265 151.966405 1462.809181 110 93 108
-336.956000 -266.475701 1517.707062 76 60 78
-325.872302 26.860398 1479.004765 58 49 66
-321.407843 184.746802 1454.025459 47 37 48
-321.468997 147.959828 1461.830330 36 32 45
-328.150368 -66.264826 1489.697552 73 57 69
-324.603248 61.720949 1469.432545 57 41 54
-330.442119 -156.885743 1500.131798 63 52 63
-349.294949 284.375310 1328.763103 112 92 135
-330.271554 -169.119239 1498.664856 48 38 48
-329.488301 -162.370121 1494.749737 111 97 126
-329.471040 -211.568260 1506.601715 84 73 87
-329.471040 -211.568260 1506.601715 84 73 87
-319.055796 142.812657 1452.961540 87 76 97
-318.930602 69.409633 1468.139648 32 26 39
-318.117023 32.591301 1464.877510 108 92 120
-318.274570 7.098668 1467.834568 51 38 48
-318.189812 -17.672831 1472.221470 82 59 65
-318.487906 -24.681391 1472.917271 49 39 52
-318.487906 -24.681391 1472.917271 49 39 52
-323.203611 -171.107960 1492.861652 73 56 73
-314.258337 88.901275 1457.179165 33 29 41
-311.443520 136.226344 1448.117733 43 30 41
-345.213461 164.039302 1337.984848 32 27 39
-345.213461 164.039302 1337.984848 32 27 39
-311.871028 139.661551 1445.618725 103 81 97
-313.729429 87.872839 1452.085590 39 32 46
-314.158583 3.055784 1466.959858 105 92 115
-317.375898 -90.560794 1477.592850 134 115 126
-313.804412 -22.544429 1471.261215 123 106 125
-315.249324 -62.538618 1472.257137 64 52 73
-315.249324 -62.538618 1472.257137 64 52 73
-342.461562 175.152552 1333.225441 75 71 107
-321.224236 -243.409109 1495.743179 63 44 55
-313.847089 -27.191922 1466.738224 54 41 58
-341.964364 160.284328 1336.367035 33 28 48
-306.021094 135.084975 1441.678333 38 32 42
-306.021094 135.084975 1441.678333 38 32 42
-306.251740 88.276064 1448.943996 97 87 122
-314.358592 -156.778002 1481.135654 57 50 69
-390.505576 273.076630 1150.204563 103 83 124
-304.177690 91.962051 1444.394970 57 47 67
-308.095884 -63.022894 1466.113567 61 47 65
-336.374640 158.931005 1326.388168 36 29 50
-333.882260 172.380018 1326.330662 83 70 118
-325.961161 143.864787 1355.928421 120 101 154
-300.941396 91.575497 1439.697838 50 45 63
-333.742952 180.042517 1323.507023 45 32 71
-308.195829 -153.771925 1472.368622 135 114 128
-307.294941 -157.279611 1474.535465 56 42 52
-305.538034 -133.230495 1469.248676 70 54 67
-331.238866 176.648426 1321.964169 40 34 60
-304.084063 -172.664618 1471.373463 68 51 66
-300.929070 -96.046603 1462.648106 61 51 68
-329.389691 163.560534 1322.605133 35 34 34
-296.689320 -130.867589 1458.739853 44 37 50
-293.256855 -63.851660 1448.264313 61 53 75
-295.561671 -169.720232 1461.040592 129 109 125
-320.086741 19.561285 1347.043991 101 87 140
-293.336034 -173.576510 1460.688686 48 41 56
-288.640118 -97.274780 1444.979382 69 54 67
-317.627931 169.939697 1307.659531 43 37 43
-285.159516 -30.354849 1434.910679 74 59 78
-397.889733 268.212056 1061.936283 37 33 50
-287.372279 -131.147707 1447.709656 66 51 66
-287.936425 -159.388852 1450.366879 57 49 62
-312.884426 14.660913 1343.619537 100 87 143
-301.268554 115.043271 1351.335335 91 75 106
-301.268554 115.043271 1351.335335 91 75 106
-288.827658 -213.753462 1455.342102 135 118 133
-282.362437 -30.801162 1429.807949 76 62 80
-300.096488 61.522269 1361.855602 21 22 49
-288.608313 -259.076691 1461.230850 82 66 77
-282.296133 -64.827025 1434.311771 75 61 90
-312.073731 159.824967 1301.905060 41 33 55
-285.292816 -216.296697 1452.890205 63 52 65
-279.297042 49.107960 1402.200127 40 37 76
-395.015073 266.851187 1050.042629 42 34 67
-296.444869 111.632168 1340.990257 42 32 66
-295.405507 106.284428 1343.227768 76 56 98
-281.387377 -214.630008 1446.567440 120 104 126
-301.095796 146.530867 1316.518307 51 50 76
-278.955793 -155.286062 1435.868263 128 107 130
-277.194118 -175.749004 1440.904045 49 43 62
-277.194118 -175.749004 1440.904045 49 43 62
-307.589793 153.015852 1293.089294 97 81 126
-296.499729 133.835709 1324.477005 111 96 147
-389.280367 257.851529 1056.724072 133 110 152
-272.631168 -66.202682 1423.877716 57 45 61
-305.995774 160.459518 1289.292049 50 43 63
-270.805740 -26.719096 1417.948246 87 63 79
-270.026088 -30.485314 1417.610645 83 63 78
-273.962402 -158.625484 1433.840466 67 57 71
-390.020704 265.927744 1044.657230 45 40 71
-302.089643 176.338458 1287.815189 48 37 78
-302.089643 176.338458 1287.815189 48 37 78
-300.916886 158.508778 1288.868618 100 83 130
-267.649364 -87.667418 1420.565033 80 60 78
-386.806703 261.262012 1042.468643 129 107 154
-266.173768 -91.529930 1418.508720 72 53 72
-283.888674 145.645177 1318.906784 54 47 67
-261.670566 -32.289815 1409.424782 64 46 64
-265.998340 -170.667160 1426.082039 136 115 138
-263.303041 -92.708653 1415.472794 125 110 136
-262.505293 -97.584438 1416.473007 52 42 67
-264.288020 -175.342298 1425.312710 54 46 64
-380.259514 232.877159 1051.972103 66 51 101
-379.302597 244.384289 1050.767231 61 44 82
-379.302597 244.384289 1050.767231 61 44 82
-293.452883 174.841297 1276.369858 61 54 79
-263.318467 -219.797325 1429.746056 53 42 62
-292.067194 153.729534 1278.834248 38 33 49
-257.179379 -40.907830 1402.358055 124 107 135
-257.179379 -40.907830 1402.358055 124 107 135
-259.782219 -131.001353 1413.359642 69 57 89
-377.436423 228.395867 1049.263096 54 43 85
-377.436423 228.395867 1049.263096 54 43 85
-255.529666 -65.378302 1405.075359 52 41 62
-256.718349 -131.138718 1410.870743 66 53 77
-256.718349 -131.138718 1410.870743 66 53 77
-290.013528 148.106909 1273.591423 108 87 133
-288.158822 174.828494 1270.918846 39 33 59
-373.826718 258.049536 1037.900639 91 74 108
-373.826718 258.049536 1037.900639 91 74 108
-250.343633 -99.358886 1403.414536 58 46 63
-253.253484 -221.230340 1418.731403 45 35 53
-282.941222 180.325758 1268.632984 46 38 69
-251.649547 -216.156721 1418.577099 133 111 124
-251.038337 -179.414141 1411.545086 75 49 61
-251.038337 -179.414141 1411.545086 75 49 61
-371.107888 230.794740 1042.936802 58 42 78
-246.655607 -99.086416 1400.601292 63 46 61
-280.916166 173.879814 1266.120815 58 45 84
-251.729870 -261.288023 1418.026638 78 64 87
-248.408175 -177.826035 1407.981110 83 61 85
-249.752927 -216.602755 1412.010574 71 56 78
-279.185820 170.394313 1264.924622 52 41 81
-248.310637 -218.378949 1406.666374 125 110 136
-248.390293 -275.543189 1413.194084 69 50 65
-247.462416 -286.215544 1415.616131 83 60 74
-251.800537 107.803750 1329.407597 31 23 55
-244.258904 -183.682680 1402.297974 87 69 97
-244.258904 -183.682680 1402.297974 87 69 97
-275.007892 157.029784 1264.267063 46 40 52
-244.226575 -222.603917 1405.059719 66 53 75
-239.125252 -99.671656 1389.610958 55 43 59
-239.125252 -99.671656 1389.610958 55 43 59
-509.580326 120.245898 723.061371 72 62 113
-245.082927 93.503523 1333.601475 25 23 48
-272.531104 154.652905 1255.601406 39 33 53
-362.961936 201.690292 1035.142803 48 36 65
-362.961936 201.690292 1035.142803 48 36 65
-269.827819 157.318258 1253.174591 44 34 70
-236.073899 -242.994332 1398.601818 43 36 60
-235.633039 -235.380316 1396.704483 133 114 139
-241.059971 106.475937 1320.372486 35 25 59
-360.583854 205.028605 1032.336521 47 35 68
-266.283703 157.531261 1250.737190 103 87 135
-243.313217 66.402417 1318.836021 35 30 54
-268.523598 -142.087185 1300.291729 84 78 132
-362.085128 262.869787 1015.934849 49 42 79
-268.769765 -144.070828 1298.130226 48 36 94
-268.769765 -144.070828 1298.130226 48 36 94
-228.282595 -101.803064 1378.591824 49 42 58
-263.783646 -140.020704 1303.555584 23 24 57
-360.843492 285.723424 1008.294201 158 136 126
-264.186835 -130.044293 1296.102905 62 55 105
-227.073789 -227.732611 1390.876579 135 111 131
-227.073789 -227.732611 1390.876579 135 111 131
-255.764604 -128.256762 1307.866192 62 55 105
-259.569502 153.086567 1245.998001 54 39 76
-352.938652 241.097713 1022.157478 60 45 91
-247.192907 -68.348926 1302.971458 88 78 130
-246.040630 -59.560949 1302.538776 24 21 43
-350.403309 237.036300 1019.777203 70 53 103
-220.647240 -226.345253 1381.166744 78 63 83
-243.835902 -113.240504 1304.640388 39 31 56
-258.316803 191.115785 1216.645336 63 54 81
-225.432730 87.339169 1300.286674 39 29 56
-250.277114 169.648325 1231.664276 65 49 91
-345.431256 236.871815 1014.895153 59 44 89
-236.941743 -112.164819 1303.303814 30 25 52
-345.574594 217.376328 1016.920090 60 43 78
-345.424986 225.279927 1015.764904 58 42 79
-223.527217 20.952356 1306.204033 37 29 56
-486.138201 72.419131 747.772074 36 27 60
-223.857570 2.792421 1306.617928 34 28 55
-223.857570 2.792421 1306.617928 34 28 55
-226.876116 57.274145 1288.458061 47 37 79
-226.876116 57.274145 1288.458061 47 37 79
-223.302770 39.058301 1298.402691 56 49 99
-227.536845 54.769629 1286.636353 85 76 126
-227.154779 52.316952 1286.885357 46 38 85
-343.208957 239.828706 1011.383915 54 39 78
-218.003702 70.771301 1298.473072 23 23 63
-210.984135 -280.307746 1373.630619 75 53 67
-244.513869 168.830621 1225.480366 58 43 80
-218.331861 15.763138 1303.234482 43 37 80
-222.155976 -14.015771 1296.582127 81 68 123
-206.897879 -212.912917 1361.624813 60 42 55
-206.886411 -215.109897 1361.840630 71 50 65
-204.940653 -214.359021 1360.925198 108 90 106
-216.386890 38.255313 1293.130112 48 42 87
-241.067815 165.597737 1219.822216 58 46 80
-241.067815 165.597737 1219.822216 58 46 80
-204.719758 -268.562746 1366.978550 97 67 93
-219.833159 -79.457796 1302.148342 47 32 61
-210.957694 90.240538 1288.611031 31 25 57
-217.367387 -58.647448 1300.537872 44 36 77
-217.367387 -58.647448 1300.537872 44 36 77
-213.084173 19.351713 1295.563793 42 31 59
-213.339186 1.609334 1297.814369 33 28 57
-218.090034 -87.245810 1303.030109 40 33 74
-218.090034 -87.245810 1303.030109 40 33 74
-217.168188 -79.819304 1302.257633 44 33 65
-208.386350 85.485309 1286.518192 40 29 63
-337.086177 201.824236 1008.613586 56 42 77
-236.612296 167.837727 1214.758110 55 42 81
-210.698390 18.917131 1289.627838 38 29 56
-209.319425 53.804505 1281.050014 36 29 61
-207.084036 58.289856 1283.539772 36 29 61
-334.599209 198.407948 1006.698895 52 38 75
-204.585695 99.875730 1280.223942 37 30 55
-206.650305 22.571620 1287.915993 37 28 61
-245.153546 -224.629521 1251.349449 67 59 115
-227.874899 163.453388 1209.031868 58 46 90
-334.289956 260.062218 985.265350 59 49 70
-203.589463 -91.772795 1294.598007 34 27 54
-197.628379 65.543610 1274.329090 29 24 51
-328.272605 223.091483 996.057415 54 43 77
-229.567003 192.166746 1186.442375 67 57 89
-229.371548 188.141775 1186.631107 60 53 75
-229.371548 188.141775 1186.631107 60 53 75
-195.523047 61.292517 1271.304226 28 21 51
-209.027171 119.017112 1233.307743 112 94 150
-221.053958 147.883880 1199.909306 56 41 76
-222.367454 -157.735252 1245.122719 30 25 60
-329.240012 167.299533 987.735558 67 57 107
-232.856464 -224.505210 1230.938721 78 68 122
-217.414737 -178.116310 1247.075367 79 66 117
-216.047692 -170.948994 1245.767498 75 66 116
-230.896854 -234.421968 1227.043438 109 98 148
-216.951108 -146.714783 1236.334038 33 29 64
-319.012642 222.134614 988.104630 69 52 97
-215.112114 -155.787706 1239.796066 33 23 55
-212.366629 -132.375324 1239.740562 89 74 128
-198.464286 -7.650019 1244.747734 31 22 52
-198.464286 -7.650019 1244.747734 31 22 52
-197.045135 53.476608 1237.410641 37 30 56
-197.045135 53.476608 1237.410641 37 30 56
-194.858527 83.353329 1233.142471 36 28 62
-226.441956 -244.547200 1227.357388 71 64 121
-317.038441 211.500955 986.260605 61 45 94
-317.038441 211.500955 986.260605 61 45 94
-209.484434 -137.505913 1237.815857 41 33 76
-333.986354 278.930616 943.746948 255 229 216
-211.569548 -140.161574 1234.169006 105 89 135
-191.973150 83.932620 1230.270672 81 72 128
-191.973150 83.932620 1230.270672 81 72 128
-208.141088 146.509576 1190.128040 59 47 88
-195.748591 -14.809328 1234.854507 28 25 54
-214.289951 181.539249 1170.144939 61 52 77
-210.227656 -154.429805 1227.744389 41 31 64
-215.306473 -243.157840 1232.510662 28 18 50
-189.229977 82.686120 1227.209568 33 23 58
-189.229977 82.686120 1227.209568 33 23 58
-189.501572 52.494091 1231.194496 58 46 81
-208.999467 -159.792304 1228.633213 93 79 134
-201.371813 -87.736619 1226.228905 29 28 64
-210.204244 178.597248 1167.763042 134 114 146
-218.504429 -250.570583 1218.656921 77 65 123
-190.389240 -15.162703 1230.685711 101 79 105
-185.431015 80.235690 1223.964214 49 44 95
-184.722602 99.607855 1221.016216 91 79 134
-187.272787 16.105153 1228.579235 97 88 139
-200.767493 -138.812983 1228.476238 37 31 73
-203.098655 -141.161585 1223.433113 104 87 137
-210.767722 -248.267436 1226.047134 27 26 54
-210.767722 -248.267436 1226.047134 27 26 54
-200.381422 146.892881 1178.939819 63 48 81
-308.617187 219.922185 976.368427 64 53 103
-200.283575 -124.301326 1219.164944 112 94 147
-312.210917 257.110810 963.057709 61 49 91
-198.623312 163.005066 1176.087856 62 47 85
-198.623312 163.005066 1176.087856 62 47 85
-182.826388 38.436416 1222.584343 40 33 56
-382.392359 55.356991 869.525242 45 38 70
-208.333111 51.701587 1184.581089 31 21 54
-182.535112 20.074457 1224.779224 33 24 53
-180.798125 81.519568 1218.190193 31 21 54
-181.910098 4.675460 1227.351284 51 39 75
-181.910098 4.675460 1227.351284 51 39 75
-184.835982 -15.670802 1224.613476 27 22 55
-195.997286 -135.096645 1223.080158 93 74 128
-195.731664 -190.637946 1227.610397 100 76 109
-190.577030 -138.716698 1223.219204 32 25 65
-181.813264 117.469466 1197.274876 49 42 91
-195.680511 -153.939998 1214.182472 44 34 68
-195.875764 -161.001599 1213.751411 39 26 58
-189.231813 -112.929034 1216.808605 41 34 73
-175.326729 50.591004 1213.173199 42 33 60
-194.978487 -164.901352 1212.073612 96 77 123
-176.454842 -9.187192 1219.581604 41 31 59
-301.941204 249.123311 961.636257 89 70 112
-188.062835 -162.060308 1213.852596 22 21 39
-188.062835 -162.060308 1213.852596 22 21 39
-299.434662 219.321346 967.178726 67 49 86
-166.450071 82.487035 1204.059982 23 18 33
-172.510982 -133.469200 1226.159096 36 28 57
-172.510982 -133.469200 1226.159096 36 28 57
-171.419787 -93.436325 1220.269012 42 32 63
-167.360663 77.410787 1201.252270 110 93 110
-184.758508 161.190748 1159.201336 58 44 83
-188.752460 -246.093726 1213.198566 102 88 145
-168.411684 -70.397794 1216.705513 24 20 49
-180.926526 -156.412005 1208.583832 32 29 63
-306.008935 277.609706 933.098888 143 124 117
-184.789824 -248.608661 1208.991051 48 31 64
-164.739811 -71.507627 1214.816570 75 68 118
-167.415607 80.263013 1185.914612 65 87 109
-167.578804 -122.258067 1215.256214 43 37 67
-168.349004 78.314662 1182.692337 38 43 61
-163.910401 -85.240602 1212.453842 41 31 64
-163.386285 -42.176315 1206.349468 20 19 44
-161.963272 -77.238935 1212.840843 25 24 58
-161.982560 -2.687919 1201.359463 113 128 152
-161.877429 0.365427 1200.608540 115 133 152
-160.934520 -13.529274 1202.289581 122 136 154
-159.268665 -17.311926 1201.817417 103 114 142
-155.599177 -41.907710 1209.932995 19 20 44
-178.938472 -246.603394 1200.183296 103 86 141
-160.081983 -128.775299 1210.390186 38 31 62
-160.081983 -128.775299 1210.390186 38 31 62
-152.270401 -44.655523 1209.453201 18 18 40
-179.499435 180.945969 1132.779694 57 50 71
-164.324033 79.592067 1169.481182 82 98 111
-155.479026 -24.350898 1198.577404 110 120 145
-175.199556 -249.078488 1198.900795 64 44 93
-162.716675 74.424016 1171.185112 18 20 27
-151.249897 -42.872623 1206.425381 57 71 90
-169.433725 -194.572663 1199.157333 95 78 132
-156.184053 -124.248648 1206.835079 41 31 62
-156.184053 -124.248648 1206.835079 41 31 62
-152.865410 -26.747268 1195.143032 121 138 157
-168.904400 141.168916 1145.337772 54 44 77
-283.528233 233.305693 948.930168 65 48 97
-283.528233 233.305693 948.930168 65 48 97
-173.776472 -246.563697 1189.910793 103 86 141
-159.556782 -3.376978 1177.109814 122 140 158
-164.863050 52.171612 1160.703564 68 74 84
-167.385042 136.639643 1144.016361 192 144 129
-166.146779 -194.553447 1193.375778 98 84 134
-173.659837 173.862493 1128.503895 118 102 138
-165.973616 144.202471 1142.586899 58 43 76
-149.046099 -94.967502 1199.909019 20 20 48
131.428635 384.779048 1568.036175 49 36 72
-167.414820 61.635363 1147.624779 13 15 19
-281.452608 209.512234 948.626995 56 42 76
-281.422257 197.844136 949.682236 61 48 98
-168.008852 -251.858234 1190.488148 46 37 81
-280.297184 228.846526 946.442413 65 51 97
-148.645878 -115.829742 1198.735428 46 36 67
-172.227526 -226.606631 1177.174568 27 24 47
-147.690630 -49.051520 1189.689255 136 161 175
-153.364837 9.979074 1170.048714 168 188 198
-147.452188 -115.449369 1194.760513 51 39 79
-161.597562 69.815993 1145.122528 36 53 82
-145.205820 -5.269933 1180.940247 51 77 112
-144.128728 -55.223095 1189.318466 15 14 30
-158.145630 -194.610989 1187.389565 103 79 111
-160.584211 134.617066 1136.551476 200 148 128
-159.538162 49.826384 1150.127983 120 117 128
-145.399845 -11.309832 1180.142307 59 79 110
-163.565254 56.797582 1142.175388 178 186 192
-148.944712 10.577677 1170.658112 154 177 189
-159.957862 72.567892 1144.942951 34 40 57
-161.346996 65.828836 1142.499542 168 184 189
-161.346996 65.828836 1142.499542 168 184 189
-144.326770 -50.826561 1183.630180 88 97 124
-144.099653 -109.539425 1190.575314 86 75 132
-143.683755 -127.254033 1193.382359 34 32 69
-160.780418 -252.142549 1184.078503 51 40 85
-275.272179 228.655553 941.765594 61 49 95
-146.740401 85.168880 1157.581043 27 28 64
-275.793338 208.879948 943.560696 65 51 89
-275.152993 216.674709 942.645931 69 52 91
-275.152993 216.674709 942.645931 69 52 91
-143.637943 -55.866045 1180.934238 103 114 134
-279.969692 274.878430 926.851749 65 50 75
-279.969692 274.878430 926.851749 65 50 75
-139.854372 -45.215353 1184.584713 100 123 143
-140.158260 0.721067 1176.482105 47 71 106
-145.476639 14.945988 1165.322781 136 162 176
-144.894314 10.243115 1166.429424 153 170 181
-162.366462 178.672242 1115.720749 58 48 61
-135.616159 30.523300 1176.614857 75 99 118
-153.765881 58.783466 1142.799473 119 118 126
-141.376555 -60.110015 1177.782154 104 107 135
-273.123527 232.343149 938.155460 70 52 103
-158.432353 -249.567008 1177.625561 103 86 141
-154.140007 62.110257 1139.866924 139 151 160
-143.042493 12.692477 1163.033295 79 81 98
-148.687911 73.504186 1144.841766 77 66 78
-148.687911 73.504186 1144.841766 77 66 78
-134.507108 -22.397254 1178.877163 51 46 88
-139.728785 15.527777 1164.443111 123 143 161
-149.098134 57.161325 1143.724823 204 216 220
-149.276161 69.278294 1141.691399 29 31 50
-136.612296 -116.710901 1184.728146 49 43 83
-131.410944 -42.302623 1180.255413 20 21 45
-135.960340 14.942126 1163.558674 130 151 167
-129.301608 -54.379547 1182.851124 27 27 57
-167.040753 169.141185 1095.514011 117 100 129
-143.528104 61.134237 1144.166279 122 124 142
-123.945940 26.827508 1176.970577 61 83 107
-147.889650 155.240357 1123.078632 72 57 85
-147.889650 155.240357 1123.078632 72 57 85
-131.829202 -97.040421 1180.980682 20 23 50
-142.861688 74.532992 1139.034271 38 40 61
-146.098900 156.581664 1121.669388 64 47 81
-138.628459 63.159096 1144.770432 155 165 177
-148.775530 -251.040888 1172.445583 96 84 141
-127.067578 -0.070547 1169.615364 172 199 210
-153.274715 177.587104 1105.313969 58 48 64
-147.712350 -252.644706 1169.228172 50 34 79
-143.861485 138.780856 1121.139050 120 100 145
-128.530061 -127.860117 1177.735519 42 31 63
-135.174251 73.239785 1139.327240 143 121 135
-124.144292 59.780264 1154.440975 160 162 172
-130.914247 79.653603 1140.017796 21 19 32
-140.542507 156.029928 1115.451431 62 46 83
-113.136685 28.118941 1171.799850 33 33 68
-126.180863 -132.276058 1174.260616 40 32 65
-117.246413 -38.041514 1172.900009 34 33 60
-127.861929 65.441465 1138.906860 170 187 196
-141.046667 -251.145768 1160.111237 92 81 140
-136.614680 133.785129 1113.043976 57 44 79
-126.399827 72.134143 1135.145187 146 154 167
-126.542974 70.070475 1134.989452 82 85 109
-133.262765 -198.955202 1160.946465 99 83 133
-137.733519 -157.643151 1148.758221 33 31 67
-118.791366 -90.724146 1164.875984 31 27 56
-117.937684 -82.343036 1164.956474 21 22 55
-116.577256 -76.739371 1160.967922 69 62 107
180.377042 379.284501 1517.518139 54 43 77
180.377042 379.284501 1517.518139 54 43 77
-122.685051 69.920450 1132.269192 197 207 212
-120.951915 73.242021 1132.448387 26 26 51
-120.653450 66.375506 1133.638382 92 97 116
-135.400724 -254.047561 1154.617977 37 26 60
-131.977534 154.581678 1104.804420 63 47 81
-131.278586 -167.300284 1146.752644 23 21 37
-111.406898 -71.537882 1161.063862 16 17 38
-255.258632 216.888261 920.542526 55 43 74
-255.258632 216.888261 920.542526 55 43 74
-113.411939 -99.890971 1156.965637 33 27 52
-128.902590 -168.076062 1140.742207 37 27 56
-257.455993 253.208184 905.715466 78 69 112
-109.803534 -68.103129 1149.951553 80 70 126
-125.654542 -157.165301 1139.098072 81 68 101
-125.674319 -170.145595 1138.024235 101 87 140
-123.598278 152.172101 1098.352432 73 62 91
-123.461485 150.693572 1098.485374 62 49 79
-125.810707 -161.354232 1136.147404 104 86 138
-251.825452 243.574858 910.467529 91 75 111
-120.489240 -199.496484 1147.312737 104 81 112
-108.614802 108.266866 1122.976398 63 53 110
-123.018336 137.702823 1098.773575 55 49 60
-103.547430 42.244756 1137.460518 41 33 66
-122.982764 -167.068231 1137.548542 48 34 80
-122.982764 -167.068231 1137.548542 48 34 80
-248.548126 213.593245 915.361786 52 40 89
-248.548126 213.593245 915.361786 52 40 89
-248.928261 206.250882 915.673542 60 50 101
-117.427790 267.855239 1089.669704 65 48 97
-249.454999 227.332377 911.160278 75 60 92
-116.920316 -142.659843 1138.146400 94 79 133
-101.385701 -19.549564 1140.286732 82 71 127
-101.385701 -19.549564 1140.286732 82 71 127
-98.408061 71.926063 1130.570793 89 77 132
-109.820259 124.247265 1108.307362 75 63 112
-109.820259 124.247265 1108.307362 75 63 112
-245.952225 228.893089 910.783672 54 41 78
-117.394590 164.097822 1091.727638 112 94 145
-246.227884 216.759610 911.852455 57 44 91
-125.062656 174.678552 1079.524136 53 48 64
-246.161747 202.246451 913.298607 57 44 94
-246.161747 202.246451 913.298607 57 44 94
-97.058034 54.680628 1129.249096 46 39 69
-98.002690 -4.699486 1135.460281 46 37 66
-95.387679 41.645843 1132.195091 61 49 83
-249.168158 261.005306 898.060799 74 63 106
-116.701651 135.414112 1090.741158 47 38 54
-96.795386 27.807745 1131.058788 40 31 63
-113.924992 -148.844552 1130.338287 50 40 82
-249.594498 248.987889 897.775173 59 52 96
-243.955684 212.192702 909.590626 57 47 94
-243.955684 212.192702 909.590626 57 47 94
-95.508569 -1.544407 1133.852386 49 39 70
-93.777812 58.589804 1127.701283 48 36 73
-114.674532 -164.484239 1125.815296 35 27 51
-113.342726 137.796581 1087.797260 49 36 62
-91.236389 80.883175 1122.490597 88 75 130
-91.236389 80.883175 1122.490597 88 75 130
-90.933478 87.035888 1121.831131 93 82 135
-245.962524 244.552183 897.548676 151 125 167
-113.230276 -168.305445 1124.779606 110 95 146
-113.230276 -168.305445 1124.779606 110 95 146
-92.551452 65.548348 1121.823502 116 103 155
-248.752332 158.354402 903.973007 70 60 115
-112.152576 -166.082525 1123.819351 101 87 133
-112.152576 -166.082525 1123.819351 101 87 133
-110.036933 137.234223 1084.806252 113 93 140
-244.672108 248.853445 893.108940 47 41 73
-88.976288 26.735386 1123.169899 39 32 62
-88.976288 26.735386 1123.169899 39 32 62
-87.298417 87.311053 1117.072678 40 30 62
-87.298417 87.311053 1117.072678 40 30 62
-88.226575 -6.431117 1127.581882 55 43 78
-86.755097 53.538889 1121.707439 54 41 79
-89.418250 -19.774200 1127.447033 44 38 68
-87.194699 41.193721 1122.581482 45 38 70
-87.063164 69.548059 1119.045925 31 24 56
-108.110642 -168.657291 1120.635509 49 41 78
-238.719773 176.404202 906.461239 42 39 75
-242.560792 248.921967 890.936565 51 42 78
-237.289762 239.218116 898.216248 166 136 182
-84.183079 70.092314 1116.202736 94 84 137
-86.181033 -20.951030 1124.335098 85 76 128
-112.270081 173.087144 1066.287422 67 57 87
-240.596032 243.931603 891.986179 159 128 170
-98.378181 -146.141088 1123.869133 90 77 130
-104.377246 133.581483 1079.487133 51 36 68
-98.706925 -141.755545 1120.143700 42 31 76
-239.263272 171.037126 900.536060 98 82 131
-80.973893 39.180458 1114.294720 37 30 61
-80.575216 38.792399 1114.551830 33 24 59
-80.575216 38.792399 1114.551830 33 24 59
-83.907562 -75.657094 1122.715282 82 71 131
-91.533089 -194.040084 1123.015785 29 23 58
-230.860710 248.351216 890.157318 75 58 96
-95.939618 146.987331 1069.250011 53 43 76
-222.481322 241.637659 897.380638 118 98 137
-68.032831 -53.729206 1125.411797 20 21 51
-68.032831 -53.729206 1125.411797 20 21 51
-93.710899 149.836707 1067.307186 57 43 76
-91.841233 131.789243 1067.228127 114 95 139
-100.692081 -243.029237 1100.898552 70 60 112
-221.148777 248.246670 890.241814 79 64 108
-213.011479 211.358047 904.236317 61 44 81
-89.102483 128.741801 1065.787029 51 45 64
-211.805034 209.641004 903.898525 128 109 152
-210.745335 204.116106 905.319595 89 67 116
-88.211566 149.505675 1060.790920 48 37 76
-50.592220 18.429098 1121.450520 40 31 70
-53.403938 -123.822212 1134.298992 35 27 59
-49.461782 46.302089 1118.194389 41 30 75
-51.086861 -18.668187 1123.949051 45 36 65
-69.862348 118.612611 1080.674934 68 59 108
-47.866622 13.986163 1117.656994 46 35 71
-84.182680 146.521509 1056.155205 45 36 58
-64.814514 -176.464355 1116.375160 25 21 43
-82.102197 -242.193079 1099.859619 66 58 100
-79.601210 148.937607 1051.754761 43 37 58
-195.179641 185.886979 907.936096 85 67 106
-194.405174 228.213096 903.249168 64 47 82
-42.015719 -72.427237 1118.351936 39 30 55
-36.899334 1.072390 1108.189392 49 38 78
-18.286295 -316.794515 1167.121124 87 71 104
-73.600918 147.585034 1046.753979 56 42 79
-73.600918 147.585034 1046.753979 56 42 79
-74.527055 132.073295 1046.792030 59 49 85
-180.922389 234.649658 910.175419 136 111 156
-187.883949 199.647450 905.742931 85 62 114
-35.393468 37.808090 1101.791859 31 24 46
-36.622828 28.339252 1101.204300 37 30 60
-35.065624 -3.186256 1104.999924 43 34 69
-71.093512 131.328225 1045.246220 53 47 60
-34.673938 -249.937153 1131.143284 32 28 60
-31.386104 63.326186 1096.759605 39 32 63
-31.265676 -3.240114 1100.373554 40 31 58
-27.833116 67.001647 1093.682289 36 27 60
-28.854033 15.680876 1093.681908 59 48 96
-37.237492 34.943405 1081.485176 99 88 134
-36.822680 29.600558 1082.444954 65 50 103
-25.476962 44.162884 1093.262482 37 36 87
-25.556800 -34.978223 1102.208328 46 41 78
-34.579650 -44.489425 1091.949749 92 79 131
-26.365167 -7.881007 1096.475029 36 34 79
-219.627666 -60.123461 914.955997 35 29 67
-65.206707 128.651345 1036.132908 49 40 77
-36.005080 31.034067 1080.326271 95 83 132
-63.840830 128.664148 1037.117100 49 40 77
-34.457237 26.133820 1081.631565 119 105 158
-26.010090 -12.308042 1094.618225 114 98 143
-179.411685 247.565103 891.854572 89 75 121
-170.636749 186.465037 908.282757 60 45 84
-34.425473 34.418550 1078.526497 105 92 140
-32.629552 37.073365 1080.126476 39 35 85
-167.832053 198.090398 908.354568 78 57 95
-61.250335 131.856787 1034.533405 47 39 60
-31.819382 29.914123 1077.559376 120 103 153
-38.094434 -136.353695 1089.467621 34 32 63
-166.649806 218.217087 904.767609 137 116 159
-20.349704 -22.950287 1093.418694 44 32 66
-17.949137 65.355361 1084.501839 46 37 81
-17.949137 65.355361 1084.501839 46 37 81
-22.743495 19.804014 1083.993721 118 100 154
-22.743495 19.804014 1083.993721 118 100 154
-57.426971 135.409307 1032.256794 52 43 61
-58.152372 131.340349 1031.365871 102 88 139
2.916957 -224.135900 1138.413239 132 112 131
2.916957 -224.135900 1138.413239 132 112 131
-161.041713 217.639422 905.021763 62 43 90
-15.037856 60.567695 1081.593418 47 36 77
-16.784309 42.717418 1080.170727 34 27 66
-31.502196 -130.983233 1082.767773 89 75 122
7.231792 -304.006052 1140.950489 92 73 97
-14.311065 35.103217 1078.489685 43 34 77
8.279656 -226.794338 1132.660580 145 121 136
-14.069718 26.345292 1078.973293 61 50 98
-264.210510 177.086556 790.369081 39 32 52
9.768131 -229.944825 1131.485081 70 55 77
-41.612494 -167.374182 1068.320656 35 29 67
-10.786667 -5.933356 1080.967903 40 31 56
-154.406071 247.012973 892.175102 86 73 117
-27.901638 -68.767303 1062.201118 33 30 69
-6.769420 -2.079885 1076.406574 39 31 57
17.060271 -231.229591 1124.847221 91 75 107
-2.732529 40.989316 1070.818329 41 34 67
-43.218702 141.022742 1016.238976 56 44 86
-43.571419 128.107977 1015.183067 51 40 75
19.541727 -307.574916 1129.899120 89 65 83
19.541727 -307.574916 1129.899120 89 65 83
20.116057 -232.508874 1122.088146 88 66 97
-41.338411 144.264829 1014.342403 57 46 87
-0.398567 36.355349 1066.996574 39 31 67
-40.013263 122.204483 1014.453030 58 41 79
-40.013263 122.204483 1014.453030 58 41 79
24.417840 -250.900722 1120.365334 80 62 85
3.437139 75.755280 1061.147404 38 30 62
24.631737 -294.517803 1123.316574 86 72 105
24.631737 -294.517803 1123.316574 86 72 105
5.135532 21.913131 1065.328884 50 38 70
5.135532 21.913131 1065.328884 50 38 70
27.947903 -254.580498 1118.692303 93 71 88
4.919009 59.778351 1059.762859 35 34 70
26.437235 -237.821603 1114.482117 143 126 155
-35.523850 143.696415 1007.814312 48 38 81
-35.523850 143.696415 1007.814312 48 38 81
27.659085 -233.470774 1113.746929 101 85 112
-36.106944 116.505933 1008.197880 117 96 144
30.908209 -249.260545 1115.290928 69 50 73
30.073109 -293.805790 1118.203163 91 74 103
-33.137053 114.987934 1007.090664 139 118 152
31.912163 -254.081297 1113.849163 69 51 67
31.727377 -278.127408 1113.946152 91 69 103
-31.755161 121.332610 1004.923153 41 36 59
-31.216851 140.043736 1002.477169 45 41 65
32.931817 -311.863852 1115.800095 80 68 104
-29.914400 114.769614 1004.122639 143 120 154
36.099321 -290.007758 1112.983894 76 54 75
36.045432 -253.969383 1108.608818 143 118 136
14.320192 74.207580 1050.654697 43 33 69
35.637838 -272.992253 1109.181213 92 67 85
-1.332349 -49.608710 1047.620201 39 33 76
37.083095 -260.719609 1108.482742 76 60 81
37.988353 -269.759727 1107.458973 79 58 80
37.988353 -269.759727 1107.458973 79 58 80
-26.374784 142.819345 997.654915 44 40 55
38.440818 -274.833179 1106.472778 135 114 135
38.950279 -280.024981 1106.201172 88 69 99
40.704912 -238.179803 1102.590656 86 74 104
41.416836 -160.180056 1092.702389 96 81 116
41.416836 -160.180056 1092.702389 96 81 116
43.456692 -295.040870 1104.775333 105 77 98
45.401549 -101.483428 1085.346699 88 73 106
43.767905 -136.485243 1087.299538 83 66 91
43.514034 -280.718613 1101.554298 101 75 102
-20.182425 141.162276 992.643452 56 43 90
45.493415 -256.966496 1099.403667 84 67 99
45.723435 -234.600520 1096.830654 148 127 145
-20.069627 122.147906 993.439579 108 91 138
46.503583 -269.662690 1098.044014 99 77 105
48.388019 -258.944368 1098.432255 92 77 108
-17.929867 139.747405 990.870857 66 58 85
-18.244547 138.105416 990.675354 53 43 79
48.520076 -135.519934 1085.081673 92 71 97
48.132575 -240.199995 1095.864582 63 56 83
48.125398 -182.666934 1089.592934 138 118 142
48.485869 -216.723275 1093.337250 72 55 77
48.485869 -216.723275 1093.337250 72 55 77
47.466007 -294.504404 1099.354458 84 64 84
-2.335980 109.706521 1006.958580 39 33 58
-16.352840 125.298643 989.945507 53 51 64
54.531950 -137.232327 1080.854416 78 59 85
52.917063 -259.476304 1092.133808 94 76 105
53.658307 -240.718555 1090.819931 78 71 95
52.660692 -210.311246 1086.201096 85 62 79
54.113704 -169.532263 1081.885052 153 128 142
55.210650 -146.327090 1080.261135 103 79 100
54.764706 -217.516232 1085.874367 90 73 97
56.060362 -296.766424 1094.015980 81 61 81
7.513830 99.410725 1005.801678 60 52 103
56.831437 -202.414131 1081.586361 85 70 97
56.831437 -202.414131 1081.586361 85 70 97
-9.895036 122.496533 983.745480 34 29 51
58.168894 -259.878087 1088.605118 84 69 100
56.776243 -270.123696 1088.353443 89 66 97
33.039778 -50.107241 1042.473984 129 112 145
-10.716249 204.700994 973.522854 58 43 91
3.828827 109.842086 996.460915 63 59 95
3.828827 109.842086 996.460915 63 59 95
27.179298 80.688745 1019.586849 43 39 88
-9.071828 229.358244 969.293594 45 38 61
-9.333996 186.843669 973.081207 46 36 61
61.106223 -257.452488 1085.477734 91 68 81
61.106223 -257.452488 1085.477734 91 68 81
-7.236534 125.288188 980.805874 43 35 61
19.750656 85.519081 1010.207844 49 41 88
-7.994605 215.882039 969.584465 53 37 89
62.053990 -176.556563 1074.485493 81 66 92
62.873209 -96.513146 1066.392708 104 75 100
63.733715 -101.953483 1066.711330 81 68 97
62.986743 -300.033021 1085.494423 89 74 105
-4.889668 125.313675 977.232361 109 91 140
23.204875 80.843771 1007.701397 113 95 143
23.839132 65.754002 1009.570312 126 107 153
47.570416 15.252464 1035.839176 29 27 65
-2.621784 200.695801 966.817951 48 36 82
25.917295 72.659051 1005.734539 44 31 65
-3.149937 185.800827 967.021370 44 35 71
29.150382 1.930644 1015.187740 23 20 36
69.728130 -181.556547 1071.262455 103 79 102
-0.564721 124.251533 974.213696 52 42 67
-0.564721 124.251533 974.213696 52 42 67
68.710804 -71.099514 1057.115555 83 67 108
-0.826047 203.954887 963.504028 43 33 79
70.679110 -296.454978 1079.272652 90 69 84
70.679110 -296.454978 1079.272652 90 69 84
1.548897 121.035659 971.613789 42 31 60
71.579283 -132.971501 1061.221600 92 72 90
71.579283 -132.971501 1061.221600 92 72 90
71.579283 -132.971501 1061.221600 92 72 90
71.635187 -203.103614 1067.912292 134 116 132
73.098725 -106.889343 1058.704376 73 56 70
73.098725 -106.889343 1058.704376 73 56 70
73.001462 -69.021124 1054.173565 141 122 146
73.403382 -236.952138 1071.754074 142 120 144
74.307764 -263.284659 1075.080967 76 55 77
72.378910 -206.249309 1067.438602 89 75 98
21.089254 -2.381242 997.293568 68 57 108
74.693489 -132.757831 1058.156967 142 119 142
76.865155 -104.146874 1055.558777 79 64 87
74.877900 -240.212440 1067.331600 85 73 100
15.401997 -21.429734 990.139294 104 89 143
76.836067 -232.187486 1066.124058 97 75 95
5.383976 214.423203 956.002617 58 43 77
35.995406 75.829703 994.937992 40 37 77
37.561160 61.057240 996.755886 63 51 82
79.918528 -208.112478 1061.396122 84 69 96
79.280865 -242.174649 1063.700485 83 68 93
79.280865 -242.174649 1063.700485 83 68 93
80.848378 -72.624505 1046.876717 70 55 84
9.798732 197.125125 954.132938 43 32 65
11.786784 135.925138 962.008572 66 53 90
11.786784 135.925138 962.008572 66 53 90
9.543050 220.454264 951.271629 48 36 71
12.594084 122.119784 961.955261 52 41 75
83.636224 -136.787164 1050.567055 152 127 139
83.581841 -209.919381 1055.103779 89 74 99
84.687924 -242.502666 1058.932018 72 58 78
14.926685 115.918100 960.254383 53 40 76
6.184459 264.217377 937.217617 51 48 58
87.554628 -144.013476 1047.949219 144 122 136
86.325777 -209.102058 1052.777004 88 72 101
86.434102 -167.231750 1048.496819 94 72 98
16.186757 111.194372 958.701992 108 88 139
88.715631 -244.362164 1054.845619 79 65 86
89.559358 -102.024007 1040.664864 134 112 136
14.706081 239.907193 940.397072 109 87 137
18.285805 136.904657 953.746891 50 39 85
92.582864 -72.681135 1039.379311 149 125 145
90.026700 -221.813154 1051.175308 91 72 96
90.026700 -221.813154 1051.175308 91 72 96
92.196047 -140.513611 1044.262028 152 123 128
92.360502 -105.954850 1039.780426 60 51 74
20.179740 116.861820 954.341507 51 45 59
20.179740 116.861820 954.341507 51 45 59
91.830933 -311.536908 1058.337975 142 123 143
91.083175 -214.322782 1047.441006 87 72 96
19.069184 174.351156 945.702171 23 26 42
19.069184 174.351156 945.702171 23 26 42
13.035360 164.144862 941.248226 26 27 46
93.368208 -72.085178 1033.347034 157 134 152
20.574291 217.954254 941.434383 39 32 52
94.135237 -103.198135 1036.078930 131 110 128
19.856597 239.290428 935.186863 106 85 135
95.522308 -245.566058 1047.590256 82 68 92
24.385440 118.049240 949.905586 48 40 72
96.483952 -310.715461 1053.787994 83 70 94
97.266102 -260.558629 1047.299957 135 112 125
99.577940 -107.658899 1032.383633 76 61 88
101.816785 63.465899 1015.611649 123 102 119
101.581037 -260.504174 1046.043015 87 65 82
101.904023 58.231604 1013.756752 54 46 72
105.088234 37.234589 1013.807487 70 56 81
107.104874 -247.005868 1038.449478 88 68 94
108.396363 -75.798845 1019.585133 72 60 92
108.757269 5.231436 1010.981655 144 121 139
109.520829 -248.031330 1033.456898 70 61 83
111.714399 -275.107431 1036.414433 91 65 93
112.745416 -282.968712 1035.993290 84 58 78
113.800418 -268.824315 1034.270763 128 108 130
111.290133 -141.424274 1019.701958 134 116 130
113.992369 -194.262302 1026.193142 85 70 96
113.992369 -194.262302 1026.193142 85 70 96
113.620818 -191.179395 1024.844360 67 57 74
114.435816 -212.793183 1027.290916 73 63 90
113.274288 94.487590 996.653938 137 123 146
115.363753 -187.664497 1024.562740 75 64 73
115.363753 -187.664497 1024.562740 75 64 73
117.016613 63.434637 1001.451206 130 112 126
114.266729 -297.750330 1033.943748 88 67 90
114.266729 -297.750330 1033.943748 88 67 90
114.161229 -300.894308 1033.961964 140 119 127
115.941429 34.060377 1001.825714 82 73 108
115.254831 -0.488648 1004.299355 69 56 83
116.375220 -268.147230 1030.935764 72 59 79
116.483998 -73.413509 1012.198448 130 107 124
115.882862 -195.247412 1022.457123 133 114 138
116.844404 104.027641 994.041061 80 62 83
120.327711 -41.047937 1009.616470 67 50 75
118.108857 5.226449 1002.689266 149 122 138
118.299723 82.969910 994.349861 79 59 82
120.076859 103.850722 992.484856 87 66 88
120.369744 -123.828626 1013.850403 86 67 89
119.783199 94.481099 992.041779 146 131 155
119.783199 94.481099 992.041779 146 131 155
119.089794 -249.376774 1024.029160 75 61 79
121.279573 -143.582225 1014.612389 82 58 76
121.848691 59.212524 994.555283 78 62 81
123.247039 -115.836918 1011.789131 59 47 59
122.738564 -121.520817 1010.532951 122 107 131
122.734153 -0.811124 998.624420 56 49 67
124.048686 27.785185 995.389080 78 65 86
124.048686 27.785185 995.389080 78 65 86
124.464989 -245.983124 1021.592617 138 113 125
124.258018 -214.370632 1018.076992 77 64 89
124.374902 20.470768 995.257282 72 55 78
123.667645 -189.852118 1014.652634 76 64 86
124.190068 102.699709 986.890697 80 62 87
125.808883 200.875711 978.129673 73 56 79
125.298560 -250.081301 1020.034695 69 56 74
126.841140 185.517037 978.463745 88 65 86
126.841140 185.517037 978.463745 88 65 86
126.653063 -43.237111 999.736881 56 47 71
126.855040 225.503516 973.854828 147 112 123
126.422417 -193.070304 1012.740135 134 115 141
127.391338 -304.022789 1023.996925 94 72 95
127.513945 150.570691 980.807590 69 50 70
127.513945 150.570691 980.807590 69 50 70
127.016270 -229.276633 1016.217041 122 106 114
127.016270 -229.276633 1016.217041 122 106 114
127.896631 58.070719 988.947773 81 63 84
127.533376 62.307858 988.014603 141 118 129
127.749050 -22.770135 994.229412 57 50 74
128.242803 -190.815496 1010.353756 64 48 74
129.926693 -227.890682 1014.732552 71 53 72
128.360796 136.334717 979.043007 148 129 146
130.188787 -216.940141 1012.271500 77 68 88
131.373668 -148.116004 1006.471825 86 68 82
129.424119 0.456289 990.525818 139 119 136
131.368721 58.698678 986.444283 66 52 74
131.661558 227.040792 970.736885 143 107 112
131.336355 -304.668927 1019.844723 95 70 95
130.900288 98.193181 981.401443 79 65 94
131.712544 -113.867223 1001.887321 68 55 72
130.858493 -252.321959 1014.256954 64 52 68
130.858493 -252.321959 1014.256954 64 52 68
129.846418 95.969725 980.477715 133 117 141
130.427921 -215.734410 1010.101318 73 62 82
130.123830 146.285021 975.582790 125 111 137
131.911111 219.729018 969.932175 109 90 101
131.911111 219.729018 969.932175 109 90 101
131.551385 93.572325 980.961704 97 75 99
131.551385 93.572325 980.961704 97 75 99
132.595026 -191.702020 1007.720947 78 63 88
132.832158 -36.645278 993.259048 148 127 148
133.002198 -158.734477 1004.598427 71 51 72
134.187913 222.036028 968.034267 59 47 66
133.257639 -3.080424 988.460732 83 62 84
134.738708 -153.657150 1003.580189 82 66 82
133.310211 -11.211676 989.075470 140 117 138
132.798016 152.983654 973.183632 126 100 115
133.471942 -311.849022 1017.325306 92 71 89
133.471942 -311.849022 1017.325306 92 71 89
133.555913 124.252331 976.350689 79 57 75
136.907303 -43.703038 994.480515 56 46 59
135.603976 181.487072 972.120857 62 44 63
135.796881 32.070073 986.140442 87 73 101
134.242654 -228.335309 1009.331608 64 46 69
134.836864 -187.874305 1005.435467 91 70 88
134.836864 -187.874305 1005.435467 91 70 88
135.209680 -20.295346 989.490795 128 108 128
135.069585 89.048183 979.049015 127 108 127
135.524583 107.753432 977.616787 87 64 81
135.524583 107.753432 977.616787 87 64 81
133.461988 -221.509290 1006.871605 85 69 91
134.135211 83.850962 978.286457 126 110 131
134.737730 -225.151563 1007.682800 136 116 130
135.214067 56.069303 981.033611 78 60 83
135.952175 -30.692661 989.509201 135 117 135
137.733114 -149.272871 1001.580620 102 80 94
135.078681 149.332643 970.941162 127 113 138
136.703503 -9.743003 986.679268 79 57 80
137.103772 -214.435220 1005.979729 149 123 140
135.295463 160.760260 969.316483 141 122 137
138.684964 -22.819957 989.028358 76 60 79
137.521183 -13.993157 987.107182 73 52 72
139.252937 224.102330 964.313602 49 40 55
139.274228 92.023116 976.463032 134 112 117
137.902248 -192.206979 1001.771927 72 58 85
137.019575 -28.438938 985.441780 77 63 86
139.199769 218.974900 963.804626 142 119 124
138.614559 -145.574236 996.712494 133 113 131
138.288188 72.210789 975.884438 79 70 98
140.840697 -46.591923 988.754845 44 38 58
139.677989 179.535258 966.479683 84 62 82
140.799057 -228.449225 1005.272484 70 57 72
142.324257 121.254385 972.538948 133 109 119
142.113721 123.818040 972.124767 62 44 55
138.917243 204.007220 962.001514 120 98 123
