ply
		format ascii 1.0
		element vertex 7384
		property float x
		property float y
		property float z
		property uchar blue
		property uchar green
		property uchar red
		end_header
-487.338066 35.069513 2662.302208 27 26 26
-460.869980 287.817359 2528.068542 70 58 29
-377.927446 344.291830 2076.017761 126 141 104
-476.060534 121.072674 2614.704514 20 18 17
-497.332573 -202.251077 2740.949821 15 13 9
-266.763330 203.364658 1394.898319 158 165 150
-552.768564 -430.646467 3048.205185 65 59 22
-496.410179 -225.160003 2741.938591 110 97 51
-540.389252 -399.599242 3008.569336 89 84 55
-536.948395 -528.686762 2980.277824 73 57 30
-374.432564 340.833950 2082.078743 185 186 150
-456.386089 228.222013 2550.634956 33 27 15
-494.391727 -277.451825 2764.012718 201 188 124
-497.923470 -303.948474 2798.599625 106 89 40
-540.989208 -430.447435 3048.376083 93 86 49
-540.989208 -430.447435 3048.376083 93 86 49
-535.737753 -588.952208 3023.295212 254 247 241
-540.435076 -418.335724 3049.711990 35 28 18
-465.891743 187.353635 2628.850746 45 35 27
-475.891066 106.315160 2686.105537 62 56 34
-466.701984 164.477193 2635.513115 77 73 54
-532.741785 -495.411444 3014.148712 254 249 243
-532.741785 -495.411444 3014.148712 254 249 243
-529.294634 -583.467245 2996.867561 254 247 241
-483.975410 -221.638632 2742.981911 154 131 76
-458.764029 -96.055961 2602.137566 215 207 147
-528.757906 -507.672405 3005.673409 68 57 40
-349.088645 367.915440 1984.791756 141 142 84
-370.334244 307.846618 2107.146454 194 196 180
-534.533787 -426.691961 3045.368195 34 27 15
-534.533787 -426.691961 3045.368195 34 27 15
-462.441683 178.664446 2635.313606 90 77 48
-462.441683 178.664446 2635.313606 90 77 48
-448.716021 -20.445761 2559.930038 94 86 76
-297.793460 897.463894 1699.020195 208 206 193
-447.841835 227.847695 2557.889938 21 20 11
-478.277683 -207.891250 2732.329750 24 18 13
-478.277683 -207.891250 2732.329750 24 18 13
-464.819050 215.924501 2657.132339 254 252 250
-370.348668 303.936219 2117.617989 104 107 57
-449.493885 26.971385 2570.634460 26 23 19
-366.112900 319.475937 2097.095108 146 145 110
-521.501780 -582.117510 2989.969254 255 248 239
-447.265768 64.930034 2566.292572 22 17 17
-448.814297 54.039258 2577.524376 31 28 23
-478.453684 -228.154707 2750.585747 24 18 13
-434.474564 305.222821 2500.958443 99 86 35
-524.432516 -492.476892 3023.798180 116 104 46
-477.714396 -271.229696 2767.320633 134 114 61
-477.714396 -271.229696 2767.320633 134 114 61
-451.898146 179.958737 2620.388031 104 94 61
-425.455189 330.859637 2471.190834 83 71 29
-454.551077 197.249377 2639.244080 57 46 32
-438.607788 16.318683 2550.929070 50 42 25
-438.173485 23.066942 2549.352074 143 134 86
-434.835720 32.535526 2535.251999 27 23 20
-512.293434 -582.745838 2992.908669 68 63 20
-518.252850 -427.345753 3033.950996 27 21 17
-518.252850 -427.345753 3033.950996 27 21 17
-433.668184 41.034749 2545.884323 162 142 92
-438.643360 85.487562 2576.676750 13 12 8
-509.748077 -520.178509 2996.191025 52 44 27
-289.901900 907.225800 1704.244232 111 118 105
-468.380642 -278.678584 2758.136368 42 39 26
-432.521009 -28.141829 2545.133972 138 128 96
-508.685732 -498.766708 2994.752693 41 38 22
-338.035846 480.258560 1991.556358 74 77 48
-431.182289 52.535462 2541.850090 159 141 86
-430.838346 44.345295 2540.213394 155 135 86
-430.838346 44.345295 2540.213394 155 135 86
-427.572680 3.607384 2522.434998 27 26 15
-447.639656 167.703342 2641.158295 26 24 24
-466.222048 -300.230408 2753.045082 181 177 118
-429.093885 60.739380 2544.222641 19 18 18
-506.972122 -437.385702 3006.919289 33 28 25
-424.907541 8.489655 2530.160522 18 15 15
-441.795397 176.328337 2631.868362 122 108 66
-424.044323 -12.589863 2527.724266 83 74 59
-461.467743 -263.082862 2755.492401 14 13 11
-319.165826 645.403290 1903.982353 130 127 124
-501.052856 -571.319866 2994.293785 55 45 27
-428.242207 244.875646 2564.923286 14 13 10
-424.852705 80.757350 2547.893715 140 129 93
-494.709826 -436.157656 2978.603172 157 144 91
-328.874636 367.357063 1981.210709 136 138 87
-310.801792 688.281059 1876.220322 216 204 165
-419.623756 63.265014 2533.254623 170 160 129
-418.857098 51.920974 2530.418587 24 21 17
-452.451134 -217.952251 2731.562805 126 113 62
-422.001934 284.969449 2551.182747 62 53 31
-416.012907 46.571827 2526.014900 31 27 14
-310.152268 677.666903 1883.138657 208 199 160
-413.897038 -15.634537 2515.536308 126 114 88
-325.801063 390.280080 1980.808640 159 165 128
-311.934090 654.877710 1898.359871 210 200 170
-312.715340 647.886753 1904.016113 220 207 167
-324.770045 466.807747 1980.868912 135 136 93
-311.081123 645.827913 1897.804642 220 207 167
-414.541817 68.395293 2529.155540 59 53 37
-415.404367 80.097878 2534.793663 23 20 20
-306.133080 693.657589 1871.093369 221 209 166
-411.634636 52.615672 2525.590134 160 141 102
-410.938787 -110.732424 2524.130630 193 184 121
-409.113407 22.164626 2515.731430 30 29 19
-480.495405 -530.372095 2958.979607 182 170 125
-304.293084 689.004135 1876.182556 130 126 123
-478.773403 -465.508461 2956.421661 186 169 107
-409.889841 -122.049594 2533.047485 135 120 60
-480.686426 -599.018097 2973.368454 254 246 242
-407.269716 -31.983176 2521.625328 30 27 27
-416.391706 212.360334 2574.461746 13 11 10
-319.600344 491.202879 1985.642242 139 138 92
-406.216908 47.620285 2526.084328 154 139 101
-402.733755 28.044271 2512.740135 120 108 78
-474.344873 -558.276606 2962.894821 49 38 28
-433.725834 -266.627884 2715.984726 197 189 129
-301.173282 674.349070 1885.000038 118 117 119
-315.603495 453.630829 1975.649261 74 75 44
-400.026751 -22.114173 2517.354393 98 94 70
-400.026751 -22.114173 2517.354393 98 94 70
-471.584272 -582.372761 2975.369835 29 24 21
-397.792029 16.431437 2508.842850 144 129 79
-299.535251 662.825680 1894.860458 210 209 188
-295.329976 682.491684 1882.703590 116 110 113
-295.329976 682.491684 1882.703590 116 110 113
-464.668894 -570.997667 2966.823196 72 60 40
-393.904877 33.162531 2514.018822 18 17 16
-310.508323 531.141043 1981.519699 94 95 54
-310.508323 531.141043 1981.519699 94 95 54
-392.103815 20.791465 2507.023621 143 125 83
-291.591001 704.190493 1865.950394 179 199 209
-289.621687 712.525511 1858.339691 107 108 113
-289.621687 712.525511 1858.339691 107 108 113
-457.846308 -532.484341 2940.562820 203 191 121
-457.846308 -532.484341 2940.562820 203 191 121
-291.204882 699.097061 1869.985771 188 187 184
-289.126801 705.604506 1864.555931 182 184 168
-424.580431 -325.577474 2743.052673 16 16 14
-386.667991 95.664155 2505.655670 46 41 30
-386.688185 -2.385199 2508.955574 20 17 16
-388.416910 104.069889 2521.082115 139 130 100
-285.965705 719.482470 1856.844902 217 204 172
-450.093937 -498.997927 2927.066994 189 176 94
-386.755681 157.210827 2516.337776 143 133 101
-409.895563 -236.602521 2667.762375 169 158 91
-304.521728 391.547179 1983.918381 157 164 111
-302.892900 534.266329 1976.387978 153 154 92
-381.106949 222.848606 2486.615562 183 166 114
-451.241302 -569.734764 2950.101280 208 196 135
-286.334252 696.220970 1871.877480 110 111 114
-402.798605 -223.191762 2639.032745 182 174 118
-286.203480 689.389563 1875.315857 177 178 165
-286.203480 689.389563 1875.315857 177 178 165
-286.203480 689.389563 1875.315857 177 178 165
-406.398630 -269.536948 2666.822815 204 199 138
-382.462621 40.737006 2509.781647 154 140 102
-386.146760 -137.271392 2535.021591 156 142 78
-286.939049 674.920940 1884.841156 116 114 118
-383.754468 126.003969 2523.522186 168 154 103
-381.055093 50.408852 2505.953598 87 78 58
-300.245810 477.347279 1978.256226 75 78 50
-300.245810 477.347279 1978.256226 75 78 50
-415.943909 -346.120143 2742.050552 185 177 102
-284.352255 683.823538 1879.179573 108 108 112
-282.205963 703.552246 1866.341019 94 100 115
-278.794646 720.446682 1854.963493 158 159 154
-373.237205 -75.454599 2484.323120 176 169 118
-296.653128 514.865351 1976.961517 165 161 106
-280.596805 694.099283 1874.879265 163 165 156
-420.194054 -378.450465 2819.234085 189 186 128
-420.194054 -378.450465 2819.234085 189 186 128
-277.879477 707.821321 1863.988876 184 206 216
-373.787498 6.884827 2508.179474 125 116 82
-372.141385 123.639500 2498.116875 203 184 127
-370.876551 77.229673 2492.358017 107 92 58
-377.780581 -152.606452 2540.400314 189 181 140
-388.866568 -209.664559 2616.077232 202 193 154
-315.193796 301.809168 2120.248795 124 127 61
-367.725682 192.126346 2477.888107 137 116 78
-367.725682 192.126346 2477.888107 137 116 78
-370.414186 155.945420 2496.715164 152 131 98
-275.572371 716.315794 1859.264183 218 206 172
-296.165848 422.669172 1998.738098 54 55 30
-367.594242 178.350198 2484.263611 124 105 78
-367.594242 178.350198 2484.263611 124 105 78
-371.430421 -6.868156 2510.701561 20 18 17
-436.811876 -583.231306 2955.374718 197 193 132
-274.872899 703.521013 1866.828156 101 106 110
-275.549746 697.082949 1873.113632 106 102 109
-272.646451 724.534988 1854.211617 219 206 169
-368.527937 28.533170 2507.468033 29 27 24
-365.458846 23.444459 2497.438240 18 14 13
-384.373355 -241.481709 2628.399467 71 70 31
-427.273512 -514.337921 2922.674179 55 48 23
-288.282084 534.396505 1976.980400 148 145 107
-386.532879 -274.162221 2652.532196 126 121 64
-424.619675 -479.001045 2921.685028 166 144 94
-286.696410 521.187973 1975.683212 171 168 121
-286.696410 521.187973 1975.683212 171 168 121
-287.587023 508.477974 1983.354378 166 160 113
-425.574350 -456.237745 2940.410614 35 32 22
-270.217085 697.710466 1872.148705 105 104 109
-360.846233 41.545025 2500.695992 95 90 67
-268.332553 715.786695 1859.610558 105 101 101
-381.904674 -275.989366 2651.771736 129 125 64
-418.691778 -433.837271 2912.965012 191 180 133
-266.037583 719.703579 1857.366180 115 110 113
-266.037583 719.703579 1857.366180 115 110 113
-392.507625 -357.584786 2743.028450 40 35 9
-349.173641 287.100220 2441.597939 140 119 62
-301.554990 307.170916 2108.995628 213 211 189
-298.566008 336.021519 2087.961578 198 197 168
-298.566008 336.021519 2087.961578 198 197 168
-374.801350 -277.569127 2641.224861 127 121 63
-351.686335 143.908167 2479.223251 83 76 56
-413.132954 -467.944193 2926.608467 43 37 21
-412.253380 -454.046106 2922.458076 195 182 124
-351.206350 154.482639 2489.004135 94 77 50
-410.871935 -472.835398 2915.638161 174 154 96
-389.238882 -370.428586 2764.061928 31 30 12
-342.088127 258.230710 2439.173126 186 163 110
-340.795112 287.720537 2432.162285 177 157 102
-347.379279 160.623765 2481.747818 171 144 97
-340.619826 296.611834 2438.153648 121 100 49
-337.754631 304.184484 2418.820381 197 181 124
-337.754631 304.184484 2418.820381 197 181 124
-364.522982 -259.867144 2611.789131 187 182 138
-406.824493 -532.437801 2917.212677 71 68 34
-407.642412 -623.279142 2938.390541 255 245 241
-256.445217 724.237394 1852.514458 212 201 169
-344.507647 133.601904 2490.491867 38 37 26
-343.801403 122.645652 2487.056160 39 35 23
-257.063174 716.203403 1859.290886 205 198 175
-396.509171 -431.100893 2894.070435 203 193 144
-334.996414 249.752450 2439.846420 132 106 54
-258.585978 680.549812 1883.896255 163 155 138
-357.048607 -253.657866 2603.500748 63 60 28
-355.714273 -237.316060 2595.482063 92 87 56
-344.043684 -147.173011 2514.350700 193 185 145
-329.101419 310.288954 2405.487442 120 114 78
-329.101419 310.288954 2405.487442 120 114 78
-356.356621 -260.713553 2609.540749 194 188 139
-339.914703 139.481175 2489.114952 118 106 75
-339.914703 139.481175 2489.114952 118 106 75
-340.138674 148.086989 2491.162109 56 47 31
-398.011732 -563.056517 2920.548630 193 182 94
-397.641397 -521.977854 2918.788147 167 143 96
-335.816717 -78.715384 2465.277863 192 186 120
-374.919748 -384.512973 2758.939743 201 193 119
-337.744069 103.244853 2490.230560 119 102 56
-339.888668 -158.534217 2513.196945 151 138 87
-323.335671 318.947744 2391.606522 178 158 109
-335.891080 170.523083 2493.709564 69 57 34
-350.048661 -248.049212 2603.347778 193 182 129
-264.677215 529.832315 1976.246643 111 107 58
-265.985227 499.923944 1988.101578 113 112 71
-353.923798 -299.372458 2649.068451 204 200 152
-324.500799 255.507302 2432.678604 182 160 102
-346.573973 -256.244969 2599.310303 81 76 26
-346.573973 -256.244969 2599.310303 81 76 26
-328.319383 178.778791 2472.691154 86 69 38
-383.480930 -498.896170 2897.612762 176 165 117
-330.598164 131.368351 2495.892715 90 83 47
-316.687250 313.028002 2392.033195 174 157 108
-243.738985 725.567484 1853.430176 139 139 134
-243.738985 725.567484 1853.430176 139 139 134
-318.900990 269.733238 2428.693962 187 169 102
-323.046756 -82.554293 2462.410355 186 174 102
-381.330347 -582.532120 2920.778275 214 202 127
-259.715486 492.072773 1987.642097 169 160 104
-361.267996 -385.000134 2769.981956 38 34 23
-257.927442 534.578419 1979.452515 190 184 133
-325.607443 170.954502 2504.527092 114 98 57
-256.762838 356.690645 1982.823563 96 96 68
-314.855289 255.134034 2433.733559 112 91 36
-335.620332 -251.596999 2595.040512 191 178 133
-335.620332 -251.596999 2595.040512 191 178 133
-376.232338 -533.460617 2911.836243 177 158 106
-376.252007 -533.857584 2912.502289 177 158 106
-347.380781 -317.943430 2697.091484 181 177 121
-373.682165 -520.367146 2905.436134 135 116 68
-253.027725 528.674650 1972.299767 135 128 70
-310.105586 276.452827 2424.134254 120 100 44
-303.725863 314.945650 2387.772369 65 52 28
-340.109777 -330.637169 2691.827965 193 188 139
-366.444612 -513.414431 2905.416298 173 157 103
-317.070627 174.381113 2511.807060 87 77 49
-305.859208 288.360500 2423.789024 108 90 32
-264.082432 345.955563 2092.929840 110 134 63
-341.549587 -348.099637 2718.094826 137 131 59
-332.993841 -304.858541 2650.806427 197 197 122
-302.973771 275.465226 2429.295349 89 73 28
-357.241273 -493.630409 2883.274078 168 154 105
-245.201826 535.339832 1978.851509 168 164 107
-244.932151 467.766523 1978.568649 168 159 99
-321.000624 -264.515519 2595.607567 159 150 89
-324.799061 -285.123944 2628.563881 194 189 128
-244.965839 367.866302 1986.773682 124 132 72
-293.101978 316.298723 2389.040947 82 66 22
-299.130201 265.714431 2440.497398 141 117 59
-299.130201 265.714431 2440.497398 141 117 59
-294.460082 301.126409 2408.923340 171 148 89
-353.439784 -519.748116 2912.525558 57 45 30
-353.439784 -519.748116 2912.525558 57 45 30
-355.793929 -609.507275 2934.500313 172 159 106
-228.703308 679.778290 1884.221268 171 168 152
-324.901271 -317.780876 2679.901505 147 137 72
-327.903318 -351.450968 2707.259750 196 193 111
-337.211823 -399.642229 2787.103462 29 28 13
-294.898748 289.370084 2435.455132 70 62 25
-301.812959 195.030069 2504.850769 90 79 51
-238.866115 479.896307 1983.089447 101 99 48
-225.750208 453.952789 1873.444366 99 97 49
-221.825027 736.145353 1845.669174 151 154 161
-248.900270 361.682677 2074.918747 186 192 144
-250.035095 337.452245 2088.625145 182 189 150
-237.845039 361.018276 1987.807465 84 90 57
-316.674423 -13.360815 2676.852608 18 18 15
-237.113833 375.952172 1986.203003 44 48 27
-217.747235 743.773937 1845.692253 218 208 180
-335.929084 -424.801350 2853.232384 181 167 112
-217.381406 731.249189 1850.404549 218 206 172
-231.632614 468.636751 1982.941055 161 156 83
-335.704827 -444.254875 2880.803299 32 27 19
-335.704827 -444.254875 2880.803299 32 27 19
-335.839415 -486.167669 2885.169411 38 32 21
-314.084983 -354.735613 2697.194862 63 60 30
-288.143229 -68.095070 2481.050682 109 97 67
-230.679345 368.066669 1986.542130 126 136 74
-335.255790 -511.757898 2900.102425 177 158 96
-300.187492 -256.386423 2596.053696 183 174 112
-300.187492 -256.386423 2596.053696 183 174 112
-228.947186 459.024715 1981.415749 138 137 100
-285.212517 -53.470349 2471.646881 153 134 84
-290.202427 -169.028580 2515.898323 187 179 127
-290.814018 -180.687463 2522.791481 134 123 74
-212.957859 736.895943 1847.611046 139 143 153
-329.620218 -477.678823 2883.682060 178 155 106
-284.254384 -3.835363 2491.094208 80 80 75
-210.041785 747.048759 1840.217018 118 129 147
-210.041785 747.048759 1840.217018 118 129 147
-301.156354 -301.829123 2643.133354 206 199 139
-212.343860 713.779974 1862.875366 139 141 136
-228.700042 398.346305 2007.433510 154 159 98
-306.076407 -366.424417 2700.986290 155 143 64
-329.377985 -470.637846 2911.946678 171 152 97
-329.377985 -470.637846 2911.946678 171 152 97
-297.871470 -295.911717 2638.059235 119 112 39
-224.745131 360.236287 1990.302658 88 91 56
-281.196523 -81.201589 2496.028328 11 11 11
-278.802657 -49.195507 2476.135445 19 17 15
-326.963925 -595.558453 2914.236450 191 177 96
-300.104380 -336.839223 2684.031296 164 153 76
-290.067530 277.203631 2590.605164 255 254 250
-290.067530 277.203631 2590.605164 255 254 250
-297.835732 -310.774708 2674.031258 183 172 109
-220.773387 457.035398 1982.620811 96 98 55
-320.531511 -477.295399 2887.768936 180 156 97
-320.531511 -477.295399 2887.768936 180 156 97
-214.370012 614.390659 1929.824638 213 203 172
-144.773412 353.352880 1301.224995 81 86 48
-220.126438 377.672625 1987.569618 59 65 40
-273.773575 -1.903619 2474.751282 29 27 25
-295.925283 -325.415230 2685.689354 53 54 21
-270.922637 -29.263961 2458.197594 51 47 37
-297.562385 -366.421843 2702.628517 61 57 34
-270.490980 -55.127102 2481.738472 83 71 50
-267.736745 -34.924722 2456.910896 178 159 103
-316.118979 -480.838776 2907.879448 50 39 19
-282.432628 -263.108683 2607.275391 147 138 70
-265.653348 -24.058259 2454.337883 49 44 36
-288.167930 -311.952758 2673.868370 34 29 27
-288.167930 -311.952758 2673.868370 34 29 27
-289.200878 -342.207479 2695.012474 177 175 91
-313.172436 -605.591822 2921.114731 154 135 70
-223.516893 339.785457 2087.969208 193 193 172
-261.132336 39.577150 2449.592590 12 9 10
-212.168932 500.930834 1990.048599 126 120 66
-284.104061 -314.675093 2671.604156 51 52 32
-284.104061 -314.675093 2671.604156 51 52 32
-284.104061 -314.675093 2671.604156 51 52 32
-260.777378 -92.859191 2460.006905 177 168 94
-280.530810 -334.871507 2684.613419 114 106 45
-254.610300 7.152455 2436.876106 47 46 25
-211.860228 355.313754 2031.298065 193 197 148
-206.362057 457.066202 1987.898827 81 84 45
-254.118395 -57.506448 2458.348656 40 38 35
-204.545951 532.522774 1984.701347 123 118 56
-251.670408 60.186088 2455.246162 125 121 93
-252.144980 -48.647621 2460.079575 142 134 105
-266.930962 -253.554440 2608.157158 157 145 84
-267.708039 -314.215755 2650.674248 168 165 95
-244.708824 -11.190552 2425.188446 16 14 15
-268.958497 -307.395506 2672.130966 40 38 24
-270.461583 -332.478118 2687.060547 205 200 119
-242.936611 27.449661 2422.604942 136 125 89
-197.887433 524.926996 1978.795433 194 190 137
-197.887433 524.926996 1978.795433 194 190 137
-244.792366 -65.980667 2462.385368 39 36 34
-262.371874 -294.424319 2651.187897 181 166 100
-241.679645 -46.294940 2447.067642 50 49 34
-237.634325 0.613541 2409.581184 180 160 105
-237.634325 0.613541 2409.581184 180 160 105
-194.646776 535.491133 1981.213379 178 174 100
-238.834023 -33.327189 2441.240501 28 24 23
-239.601254 -57.130069 2450.929832 165 162 109
-253.053045 -216.247034 2590.029335 93 85 39
-289.852476 -548.901796 2975.403214 56 49 31
-254.907632 -244.161177 2615.195465 88 90 47
-239.770269 -92.019218 2462.474060 187 179 108
-286.113143 -577.089071 2949.952316 91 86 47
-298.821974 -504.857016 3084.063911 89 78 50
-284.631157 -430.199623 2962.409019 255 248 234
-200.695705 344.695520 2087.462997 123 133 95
-199.705493 339.705110 2089.764214 191 191 160
-253.850698 -301.526690 2662.538528 25 23 11
-189.784217 533.599901 1988.473129 113 117 54
-189.784217 533.599901 1988.473129 113 117 54
-280.393624 -566.538858 2973.798180 115 99 42
-227.131438 6.390365 2410.502052 23 19 20
-227.115393 20.493448 2414.065170 155 145 104
-226.889014 29.231107 2414.782524 135 129 92
-227.855635 -40.112126 2431.443024 190 175 119
-226.983547 41.765070 2424.699020 114 105 70
-227.318001 66.796374 2430.403519 84 82 55
-227.318001 66.796374 2430.403519 84 82 55
-186.540031 428.150892 1995.613289 159 149 81
-222.935534 -5.467374 2400.564384 37 28 15
-183.774793 536.139584 1982.119179 168 168 104
-245.721149 -291.675472 2659.297562 44 40 29
-174.568510 680.127859 1888.552094 200 198 180
-174.073446 684.846735 1883.801842 134 142 147
-174.073446 684.846735 1883.801842 134 142 147
-220.619416 -17.552570 2405.272102 36 31 25
-224.983740 -96.381426 2461.516380 175 167 105
-224.021149 -62.348688 2451.921272 169 149 96
-219.566250 13.798626 2403.241539 152 134 93
-277.004194 -463.002682 3040.718460 255 245 241
-181.244504 511.427021 1991.074181 150 152 99
-218.178606 22.447424 2401.097107 99 90 71
-219.767761 -47.978863 2418.960190 161 151 93
-239.012289 -247.475004 2636.674118 155 140 81
-235.780811 -227.462673 2623.986053 196 182 110
-241.599488 -321.178174 2692.744064 64 56 29
-214.196897 -25.626853 2401.228523 180 169 108
-188.908088 303.999925 2123.322487 146 147 79
-165.558279 717.215204 1862.384987 131 132 145
-218.684506 -84.719306 2469.553566 160 144 88
-216.002512 -57.342136 2445.130157 192 174 116
-216.254115 -82.922781 2452.674675 160 144 88
-166.733038 680.382919 1889.663506 143 150 157
-216.229153 -63.864917 2454.426384 77 63 41
-235.712934 -306.283832 2677.203941 198 190 118
-235.712934 -306.283832 2677.203941 198 190 118
-215.871072 -91.547430 2463.469696 38 36 15
-184.230101 307.563305 2111.101913 206 197 157
-164.202797 676.644325 1890.672302 131 131 142
-207.614422 35.542038 2399.740410 18 16 16
-207.614422 35.542038 2399.740410 18 16 16
-179.507244 345.715237 2084.946632 94 113 61
-170.907784 479.968739 1985.893822 83 93 48
-206.405544 -73.615146 2441.243362 201 196 136
-205.587578 -50.788009 2431.784248 179 173 117
-203.350663 63.910103 2410.676575 23 19 21
-166.904998 445.033455 1992.975235 149 155 102
-200.176096 40.964100 2398.118401 144 137 101
-156.322992 698.498011 1875.688934 149 149 156
-212.200332 293.480015 2547.504997 254 251 247
-155.095375 716.545105 1864.863968 150 149 160
-155.095375 716.545105 1864.863968 150 149 160
-197.652555 11.616926 2387.016487 194 174 127
-230.739141 -370.379281 2809.132385 57 57 30
-197.076714 -26.916933 2395.545197 28 25 14
-140.724206 898.681927 1711.202812 178 180 177
-195.608890 60.278183 2397.668457 175 162 114
-194.675171 -7.964763 2394.643974 73 60 53
-153.620040 681.775761 1888.391876 209 205 204
-173.165452 297.378945 2133.564377 178 183 123
-198.967385 -88.158721 2463.989449 167 154 93
-215.123010 -266.861773 2676.897812 132 115 53
-152.882755 676.557064 1899.227524 206 202 203
-229.151034 -393.961024 2855.578041 102 91 34
-193.178403 79.156119 2402.924728 134 127 93
-193.178403 79.156119 2402.924728 134 127 93
-209.629726 -190.279043 2616.737556 168 156 90
-191.838944 -24.961381 2391.584206 25 22 22
-191.838944 -24.961381 2391.584206 25 22 22
-148.618793 737.850571 1852.233505 221 212 193
-148.618793 737.850571 1852.233505 221 212 193
-151.772940 674.464130 1892.772865 206 202 203
-208.566213 -197.795796 2615.204430 36 35 15
-192.408490 -60.396057 2419.375610 111 102 49
-167.339981 321.437120 2101.049042 143 141 117
-151.324797 658.224583 1907.491302 146 152 163
-189.457440 74.989474 2392.528725 144 133 100
-189.077163 59.032601 2389.700127 92 78 51
-210.898733 -224.285650 2675.770760 120 109 50
-164.737689 345.457387 2087.645149 103 116 52
-164.737689 345.457387 2087.645149 103 116 52
-191.138458 115.587699 2427.101898 11 9 9
-146.011257 730.888319 1854.746056 174 175 184
-188.531578 -48.072454 2398.294830 187 174 106
-132.765007 906.242752 1701.089668 137 142 138
-143.983924 745.420694 1845.086098 155 156 165
-154.933965 501.646805 1995.007515 106 112 56
-154.933965 501.646805 1995.007515 106 112 56
-142.391622 757.642412 1837.075233 149 152 166
-142.391622 757.642412 1837.075233 149 152 166
-141.902411 763.279295 1833.401680 145 149 159
-141.902411 763.279295 1833.401680 145 149 159
-145.598829 685.354424 1885.934830 147 142 152
-145.598829 685.354424 1885.934830 147 142 152
-145.598829 685.354424 1885.934830 147 142 152
-183.326221 46.497950 2379.390144 96 85 61
-162.307453 312.037778 2109.191132 188 187 150
-206.172514 -242.918229 2685.415840 72 63 21
-204.619575 -219.413304 2677.415657 32 29 17
-182.068241 29.093921 2395.996094 170 150 96
-182.068241 29.093921 2395.996094 170 150 96
-180.243492 64.413023 2375.219727 101 89 69
-208.845019 -354.262948 2769.233322 46 45 25
-200.323534 -204.089403 2662.194061 78 75 33
-180.308914 114.441502 2393.882370 175 161 107
-180.540168 101.607800 2398.056793 158 146 93
-177.522290 51.520139 2371.974564 174 156 103
-179.217494 -27.636412 2403.680611 127 117 87
-156.897986 308.833933 2108.930779 81 77 51
-139.986324 691.283703 1882.126617 144 141 150
-196.249330 -176.728034 2643.470573 35 28 17
-198.235965 -225.030899 2678.877068 97 84 39
-147.478342 501.427841 1993.134308 113 117 57
-140.122628 669.647789 1896.048164 144 144 155
-197.092092 -248.104906 2678.775024 166 143 82
-197.092092 -248.104906 2678.775024 166 143 82
-139.414752 672.600985 1894.190025 145 142 151
-145.620751 355.006671 1985.112381 191 190 157
-210.085320 -399.347091 2876.535988 76 74 32
-173.788154 72.567272 2375.251389 84 71 48
-136.590433 708.294821 1869.708061 193 202 209
-136.590433 708.294821 1869.708061 193 202 209
-191.341233 -200.077987 2650.727081 154 147 93
-173.160470 -44.058484 2396.277428 145 128 82
-172.735894 -18.884453 2394.054604 76 58 39
-151.933193 311.233974 2108.089638 180 176 131
-135.439396 688.541698 1884.518623 200 196 197
-172.271383 -25.264886 2402.785110 112 100 69
-191.081393 -225.070500 2674.944115 27 25 14
-190.421963 -272.954202 2688.710403 175 165 95
-135.403633 658.325195 1909.879684 114 114 126
-171.059763 -64.866138 2419.373894 135 121 63
-187.161970 -183.270645 2651.094246 34 33 18
-140.708804 469.423914 1988.373375 136 134 78
-140.708804 469.423914 1988.373375 136 134 78
-193.821001 -341.400647 2750.310898 175 165 100
-134.938264 652.009201 1911.834717 220 209 177
-166.894042 109.150207 2370.787811 81 69 55
-132.960761 682.600021 1888.524818 149 145 147
-132.960761 682.600021 1888.524818 149 145 147
-172.810066 -80.182534 2466.177368 194 187 128
-166.256201 116.510236 2371.384048 183 166 114
-140.228677 423.897505 2004.164314 48 53 26
-166.203296 143.566179 2378.277206 198 180 127
-193.038750 -358.313680 2788.164330 103 93 57
-164.236069 94.051343 2369.061279 173 159 105
-164.236069 94.051343 2369.061279 173 159 105
-144.341195 342.673302 2087.446404 126 127 82
-130.662525 664.259863 1901.950073 141 138 149
-184.054971 -204.524398 2687.073326 22 21 9
-136.880589 405.181360 1994.479561 44 47 36
-163.860750 -20.793450 2393.062210 56 51 41
-129.962838 671.224833 1895.631027 164 163 167
-180.252242 -177.918065 2642.464256 193 181 97
-180.252242 -177.918065 2642.464256 193 181 97
-163.293946 -49.931812 2398.624229 183 173 98
-135.218179 359.583092 1984.897041 88 89 57
-179.018164 -151.815033 2633.272362 20 19 16
-129.500008 655.570030 1907.055283 138 132 141
-179.381311 -189.282727 2653.400421 61 58 19
-160.266876 88.637388 2369.536400 88 75 56
-142.224431 310.764813 2107.992172 215 208 186
-142.224431 310.764813 2107.992172 215 208 186
-159.178913 105.060148 2366.931534 91 76 60
-159.178913 105.060148 2366.931534 91 76 60
-159.877849 14.630678 2390.260887 189 176 113
-176.533055 -219.762373 2676.503944 43 41 35
-124.010801 701.296854 1877.333069 158 155 159
-175.640714 -226.395941 2673.262405 45 36 32
-157.792175 -49.810499 2403.143501 22 21 14
-130.656731 367.691231 1989.136124 137 140 84
-136.887932 341.099906 2087.496948 182 180 144
-171.945596 -173.336554 2642.425919 62 49 24
-120.202196 747.210312 1849.491882 214 208 192
-183.486438 -356.598759 2838.219833 180 169 111
-152.664185 99.613762 2361.239433 81 65 46
-128.462732 396.574497 1987.327576 175 172 104
-162.138236 -69.253325 2514.714050 185 175 102
-171.929431 -213.538647 2674.213982 150 144 77
-122.319543 668.907022 1897.699547 149 157 165
-160.120761 -75.508285 2504.668999 82 83 32
-126.787877 533.247566 1978.917694 117 117 57
-120.056832 703.897476 1875.052261 196 213 224
-170.820618 -262.481999 2695.636749 158 142 84
-168.160725 -182.750225 2656.792068 193 186 103
-168.035483 -113.914168 2656.471062 20 18 12
-168.191361 -221.646571 2669.308853 153 148 70
-168.191361 -221.646571 2669.308853 153 148 70
-119.423556 681.618500 1889.680672 156 153 160
-119.423556 681.618500 1889.680672 156 153 160
-168.830287 -247.461414 2690.502357 93 89 37
-145.611870 106.301808 2357.385063 181 165 115
-164.659929 -211.848187 2670.761871 21 19 14
-129.263449 328.606606 2099.302673 139 128 113
-142.132044 252.772236 2328.222656 255 251 246
-115.543377 658.071089 1908.434105 141 146 159
-159.908235 -201.262355 2677.771950 15 13 10
-140.607822 96.043491 2352.914619 126 104 66
-157.132995 -158.364725 2644.458771 18 16 11
-138.908386 86.847156 2356.365776 185 165 109
-115.343642 586.578321 1956.465721 140 136 130
-115.343642 586.578321 1956.465721 140 136 130
-115.377748 454.358530 1977.329826 67 72 39
-140.148079 -46.252567 2420.187569 94 84 44
-109.814501 680.109072 1892.425537 216 212 207
-138.214099 -4.995635 2395.073128 181 167 108
-153.981364 -253.873682 2674.194908 191 177 119
-150.097632 -103.722191 2621.914101 41 37 26
-113.766515 538.674641 1988.400459 165 163 89
-138.019133 -40.613276 2424.258041 127 113 63
-133.585286 38.089627 2360.321045 155 136 80
-146.960807 -140.600383 2614.356995 23 20 9
-143.580210 -63.991964 2550.904083 16 14 10
-117.832780 337.429070 2093.593979 189 191 165
-149.473536 -243.872452 2671.187210 45 43 25
-143.304455 -71.287555 2563.343811 141 130 75
-105.396903 690.796566 1886.759758 154 156 165
-129.265952 227.362132 2317.264938 206 190 127
-149.628377 -192.155254 2690.367508 21 17 17
-111.108840 428.336716 2000.437737 155 144 75
-110.230422 481.190777 1984.298706 76 80 47
-143.453372 -114.518142 2608.819580 88 82 45
-127.113223 232.940841 2313.857841 108 88 45
-126.999450 220.782638 2312.904358 123 101 43
-132.836854 -36.031166 2427.846909 22 19 17
-146.559739 -263.196278 2692.628860 181 166 94
-128.736842 49.795660 2361.172676 86 74 44
-101.297081 731.380224 1856.277466 143 148 161
-125.308442 289.725018 2318.471146 149 134 87
-105.299580 586.381674 1956.914330 177 173 127
-96.476644 827.337265 1793.317413 166 169 177
-144.699204 -237.098193 2707.048798 33 27 19
-139.256537 -71.929067 2618.371964 34 30 24
-105.679750 537.316942 1983.712959 161 153 78
-96.978909 769.457912 1831.639290 159 162 172
-122.169948 235.876727 2310.211182 192 173 110
-122.169948 235.876727 2310.211182 192 173 110
-124.311113 63.222021 2360.298920 102 93 54
-104.898012 497.999239 1995.342827 189 185 124
-97.904062 715.575886 1867.066383 135 136 155
-123.888791 12.094235 2382.839584 180 167 99
-134.550142 -142.236817 2601.029968 154 143 88
-132.151330 -61.144805 2588.895226 55 48 31
-135.552549 -170.757282 2668.628693 48 44 30
-94.051641 754.231215 1845.137215 192 186 164
-117.368436 230.215764 2306.659698 92 81 37
-116.534925 245.533204 2291.530228 201 183 119
-133.239579 -86.867464 2629.705238 25 22 19
-93.115300 768.396187 1831.730652 177 180 186
-96.302116 665.505552 1905.423546 160 161 170
-94.589555 699.312258 1881.008148 216 211 194
-133.131015 -153.600788 2662.633133 14 11 8
-94.728613 661.310291 1905.479431 139 145 159
-94.019836 676.128006 1897.377777 139 143 160
-92.484194 675.866508 1896.239662 137 140 154
-112.073517 206.587863 2313.198853 204 185 126
-126.870704 -90.555340 2628.459740 67 69 38
-126.717472 -68.963373 2631.901741 13 11 11
-100.868058 347.336173 2091.719055 109 132 57
-127.390456 -166.032040 2661.927795 150 135 81
-93.167919 610.053730 1940.948868 213 210 189
-91.618896 653.079033 1912.999725 144 145 152
-95.194411 428.240013 1999.118042 163 153 81
-108.939600 233.795238 2298.063469 199 181 117
-85.756576 797.545719 1813.773918 163 168 182
-107.803261 299.456477 2287.569046 83 83 19
-138.440287 -187.924051 2898.346710 124 114 60
-87.485188 710.198927 1871.776009 221 212 204
-86.040199 754.812002 1844.719696 157 158 164
-106.305552 261.022878 2285.984993 207 188 130
-127.222240 -216.418195 2748.545837 97 93 54
-88.843220 611.938286 1937.526512 160 162 160
-87.409019 663.137865 1907.735252 220 217 214
-118.068516 -65.158194 2624.838829 130 118 92
-102.931082 225.871301 2304.639244 119 97 37
-93.498158 330.960727 2095.034790 202 201 166
-84.927726 655.571890 1909.230423 173 174 173
-100.972319 260.612822 2287.179565 96 84 31
-99.681878 277.371001 2268.628883 193 184 132
-89.490825 339.763999 2093.864632 202 200 154
-99.589890 249.890447 2340.011597 120 103 65
-83.900470 495.717716 1998.502731 150 151 70
-93.871754 305.262613 2256.937027 54 46 29
-109.060168 -116.493392 2666.259193 32 27 22
-81.389111 531.193447 1981.791496 122 126 100
-81.389111 531.193447 1981.791496 122 126 100
-94.804364 195.685923 2315.234375 154 135 75
-91.860193 282.735181 2265.552711 191 174 111
-91.926801 291.168332 2270.861053 185 171 108
-103.540409 -34.298220 2588.486862 172 144 80
-91.412026 263.229537 2282.443237 50 47 12
-102.557254 -0.630406 2580.252838 98 91 63
-102.557254 -0.630406 2580.252838 98 91 63
-89.601618 266.490412 2271.622467 159 147 101
-105.259287 149.364591 2526.211548 168 148 82
-87.127364 299.554253 2256.062698 189 173 105
-101.032126 -94.230497 2635.602760 18 16 13
-99.521542 -46.471626 2599.952507 78 66 46
-86.407697 246.919107 2275.539207 149 128 74
-86.407697 246.919107 2275.539207 149 128 74
-98.795313 -102.912140 2638.768768 122 112 61
-98.795313 -102.912140 2638.768768 122 112 61
-85.708857 258.259749 2281.287003 189 167 112
-74.501616 470.164204 1987.513351 156 153 73
-94.612503 -54.689652 2603.037643 172 145 86
-95.649010 -84.731030 2638.987732 94 85 46
-95.649010 -84.731030 2638.987732 94 85 46
-93.432957 -14.970797 2588.160706 142 131 98
-91.520292 -7.162812 2581.864166 52 46 36
-73.041576 363.332057 2073.141861 198 201 139
-77.711403 334.695745 2220.806122 190 194 141
-72.663999 362.912965 2069.732666 198 201 139
-80.134535 230.882430 2318.247604 186 167 96
-90.402508 -93.931198 2633.686447 123 107 59
-78.252780 251.442742 2272.941971 89 73 37
-67.825466 457.264709 1989.456558 74 78 33
-83.804679 537.871742 2447.634315 144 143 113
-66.711956 532.233572 1987.366676 194 190 111
-69.912738 340.237260 2100.276375 199 201 142
-93.350381 -299.900818 2848.176384 164 157 82
-77.209753 227.861905 2353.605843 158 138 81
-84.426725 -53.221947 2607.907677 172 145 84
-67.960799 348.695397 2104.128647 109 133 60
-82.630265 23.988783 2573.635864 141 121 81
-82.032102 -24.782005 2594.141197 175 161 91
-55.955803 857.280445 1763.326645 164 164 168
-82.353175 -94.113702 2624.267387 58 53 31
-62.767172 484.509611 1998.317146 84 81 36
-80.366254 40.252531 2598.020554 254 249 243
-80.366254 40.252531 2598.020554 254 249 243
-78.510368 17.372693 2583.568001 23 18 18
-79.610080 -107.762325 2640.360832 156 134 71
-60.073054 502.060986 1993.384552 142 133 61
-78.245771 55.214530 2632.074738 254 249 246
-69.410151 236.457682 2358.463860 255 249 245
-76.404893 -89.672524 2624.213982 177 155 87
-64.248419 292.575526 2226.968575 49 42 25
-74.120700 -16.362515 2589.998627 145 135 90
-50.693464 860.064507 1763.688850 170 174 178
-73.610789 38.780174 2595.626068 25 25 26
-74.578983 -123.162580 2659.901428 183 167 100
-65.056932 244.384432 2330.353165 254 250 243
-55.329472 509.088755 1996.274757 187 180 100
-52.353507 438.838148 1984.003830 161 165 95
-73.308516 -265.482450 2810.213852 180 168 113
-67.409652 23.379953 2575.529099 20 17 17
-71.899372 -248.076987 2795.573807 132 113 63
-67.579752 -81.198645 2624.048996 179 162 95
-66.820014 -65.032840 2626.176071 14 12 11
-50.940394 446.502018 1988.075256 183 184 127
-52.679127 347.121739 2079.819298 115 149 71
-44.366729 846.689987 1773.355293 170 174 175
-49.270183 493.608236 1996.858406 139 141 96
-68.816268 -275.736070 2827.052116 32 26 15
-64.103526 -118.171895 2667.205811 54 53 50
-47.371304 393.044233 1994.172287 177 176 117
-61.197281 -76.254225 2613.977432 172 163 89
-60.704565 -5.573589 2604.648781 71 72 65
-46.872324 369.662714 1994.925117 149 147 84
-66.559237 -301.184297 2904.289627 255 244 237
-60.065466 31.721136 2605.121803 20 16 13
-60.065466 31.721136 2605.121803 20 16 13
-45.339271 459.228373 1985.823822 49 49 30
-61.698580 -193.262041 2757.930183 146 136 85
-59.416068 -22.919211 2640.811729 255 246 239
-50.745928 269.113469 2255.977058 32 26 19
-44.772157 472.889185 1991.151619 67 69 44
-60.799330 -160.215378 2757.943916 140 121 68
-61.400622 -246.782660 2811.781120 126 117 56
-48.781222 276.227665 2244.630051 202 192 120
-48.812667 275.935459 2246.111298 202 192 120
-59.412169 -229.202223 2790.243721 186 176 103
-42.012948 548.630667 1965.278435 168 162 90
-42.012948 548.630667 1965.278435 168 162 90
-46.730253 289.842224 2223.132896 190 183 107
-57.477909 -222.315478 2785.146332 73 66 31
-57.133687 -169.764459 2799.019432 87 70 35
-40.415329 313.073945 2128.494644 201 192 161
-38.718796 309.572673 2154.571342 110 118 70
-45.128953 -45.803335 2650.110054 19 14 15
-44.664329 -270.501447 2874.492836 128 119 63
-34.458381 298.906732 2199.051857 111 101 45
-34.458381 298.906732 2199.051857 111 101 45
-28.140512 457.032537 1983.391762 161 156 115
-30.943993 289.552689 2200.311470 211 201 131
-23.768596 909.886837 1707.233429 120 122 110
-28.197822 311.985135 2179.408455 186 176 103
-35.860395 -196.508968 2851.188469 117 105 69
-19.658144 900.403118 1702.371597 233 227 209
-24.566922 354.934907 2161.034012 167 173 116
-29.650524 -233.096433 2863.495445 105 93 52
-23.133686 384.144092 2181.136703 190 194 162
-20.776829 525.415230 1973.830795 30 34 38
-20.326322 496.699905 1972.100639 206 205 204
-19.784895 502.854347 1968.533134 80 86 83
-19.087797 557.559252 1950.917435 154 155 126
-17.648911 540.246916 1967.468452 211 207 201
-16.995806 568.236685 1953.066063 72 79 73
-15.722588 518.544340 1970.055580 180 180 152
-14.260705 432.830381 2005.033684 176 169 98
-15.532327 278.719163 2237.841225 255 249 244
-15.532327 278.719163 2237.841225 255 249 244
-13.299266 550.543165 1964.011574 205 201 190
-12.650175 529.426908 1974.209976 103 108 65
-12.463727 325.793839 2182.151031 254 247 244
-9.308822 866.422653 1710.205841 224 219 205
-11.508462 302.697182 2186.221313 77 81 35
-9.715871 552.464867 1964.381981 201 200 197
-9.452663 452.486563 1982.457924 156 149 125
-9.600177 353.686452 2153.935814 159 168 98
-5.351030 516.496706 1973.007011 161 161 102
-3.584512 369.991660 2147.662354 254 249 243
0.121897 304.709029 2187.903976 92 89 49
1.275042 515.642262 1977.833557 72 77 48
2.636496 459.348631 1980.454254 170 162 97
2.612594 551.160431 1962.724495 159 158 145
3.349176 818.023491 1748.398590 172 172 170
6.344509 705.635643 1848.275757 199 200 195
6.795965 851.036549 1712.777328 165 167 163
8.703830 493.915892 1973.973846 97 96 48
8.703830 493.915892 1973.973846 97 96 48
9.742542 370.847631 2003.508759 138 144 132
9.577620 484.730816 1977.695465 76 70 34
10.136697 727.355909 1849.053001 127 129 108
9.480510 863.000298 1702.167511 221 220 221
10.494645 806.851196 1747.203636 183 179 179
13.992476 290.934634 2202.772331 255 248 241
15.268931 373.839378 2017.165756 116 126 109
18.118870 454.791212 1984.793854 120 118 97
28.335401 151.143003 2148.056221 255 244 240
22.370248 843.992615 1705.859375 159 158 162
25.953242 882.987309 1666.788101 86 100 103
33.438393 821.602535 1713.307571 173 172 177
37.943882 830.180645 1702.897453 165 163 164
38.106570 840.663338 1695.493317 181 177 168
38.593063 863.789845 1681.706429 207 205 203
37.898365 879.967690 1639.523125 188 187 176
39.564684 824.856472 1704.825974 220 218 210
49.050492 400.532055 2029.377937 188 189 138
41.311690 841.127300 1692.706299 204 203 200
41.781318 833.504009 1696.844864 217 214 210
42.936471 868.682098 1653.745842 201 202 200
44.141567 862.839031 1679.693604 95 98 88
47.193909 852.516365 1685.016251 139 141 131
49.185115 880.632305 1660.375977 116 118 113
48.954454 876.253796 1653.102875 121 122 113
49.185115 880.632305 1660.375977 116 118 113
50.318110 865.969849 1673.691368 124 126 116
50.318110 865.969849 1673.691368 124 126 116
61.560524 372.929430 2011.723328 173 172 168
53.636110 877.085018 1688.718414 88 90 73
53.840816 861.411285 1694.897079 117 118 105
57.855564 882.951832 1703.195953 145 148 131
60.134590 875.752831 1667.834854 186 183 181
72.181231 856.232929 1866.980553 133 135 147
171.610689 813.388348 1943.320847 221 215 217
236.769152 923.573494 2550.277710 79 66 65
168.937242 895.570183 1785.398102 222 216 217
226.392984 804.014206 2217.792892 79 66 65
246.861959 838.502789 2124.832916 128 130 145
231.995034 785.202837 1885.657501 144 127 120
262.772012 866.031742 2074.181938 144 124 118
243.725467 895.954609 1820.876503 144 127 123
243.725467 895.954609 1820.876503 144 127 123
243.821263 903.148174 1811.392212 133 118 115
243.281293 928.664875 1785.015678 129 108 97
243.281293 928.664875 1785.015678 129 108 97
236.842513 847.013474 1663.015556 129 110 105
258.931112 682.562304 1742.101097 195 190 195
-784.724617 1068.103981 2075.829887 156 158 166
-791.851759 1060.439777 2100.359154 117 125 141
-508.440018 550.787640 1842.800713 255 255 255
-631.810045 -61.016691 2418.623161 149 135 81
-631.810045 -61.016691 2418.623161 149 135 81
-653.205156 -96.118987 2498.106956 255 253 249
-483.904982 347.383237 1944.778061 98 105 104
-375.505972 784.746313 1579.073715 139 136 119
-371.707916 798.267269 1566.656590 187 184 171
-622.095203 -101.421094 2464.748001 162 147 88
-475.171328 368.110800 1955.044365 72 77 70
-369.565916 796.271896 1569.964123 71 76 60
-477.333355 363.423610 1976.884651 155 157 152
-477.333355 363.423610 1976.884651 155 157 152
-364.977312 796.976423 1569.087219 196 196 178
-662.846994 -168.349922 2641.322517 254 249 244
-606.322289 -69.342965 2460.480881 253 253 249
-368.349671 768.980503 1592.997360 207 205 197
-358.347440 802.883816 1558.626652 195 192 178
-601.607704 -83.806652 2461.927605 51 41 38
-601.394987 -110.550475 2467.168236 137 120 67
-606.940651 -62.556416 2480.743790 41 30 19
-606.940651 -62.556416 2480.743790 41 30 19
-354.727674 806.478024 1559.885693 109 114 95
-603.967762 -55.828696 2476.591110 111 96 67
-354.208803 805.957603 1558.903217 109 114 95
-608.543205 -133.385718 2504.978371 172 161 103
-599.777412 -44.097683 2464.717102 255 254 251
-491.633749 415.886497 2020.949364 155 157 152
-491.633749 415.886497 2020.949364 155 157 152
-600.404930 -118.199277 2483.321762 199 186 115
-357.084632 786.133099 1578.063583 137 127 114
-589.975643 -111.736846 2480.513382 128 109 48
-589.975643 -111.736846 2480.513382 128 109 48
-624.900723 -166.926277 2601.943779 253 249 245
-583.823156 -105.281866 2484.347153 162 148 74
-579.160643 -81.480628 2467.064476 111 92 55
-344.433022 812.456322 1569.605064 91 95 60
-579.290342 -101.826572 2484.472847 170 153 79
-609.243631 -177.319455 2599.833488 83 80 33
-345.112514 798.494482 1586.071777 105 104 82
-583.301783 -131.343591 2516.020966 174 166 80
-424.485302 513.299322 1890.905380 255 255 255
-600.339174 -170.957005 2588.639069 181 177 135
-582.112694 -146.602774 2531.155014 193 189 107
-569.360590 -85.743237 2481.700134 254 252 248
-401.851225 586.650610 1820.113754 255 255 254
-575.125456 -110.318124 2512.394714 109 99 46
-577.924967 -125.504279 2525.331306 84 78 27
-417.288685 462.316513 1898.669434 88 86 44
-417.288685 462.316513 1898.669434 88 86 44
-392.235518 608.770800 1794.978142 153 145 143
-390.482116 612.620735 1788.913155 200 195 176
-591.840172 -184.493113 2591.802979 71 69 24
-588.032579 -170.959330 2577.061653 187 179 123
-392.772245 599.197054 1801.914787 152 147 128
-419.470167 436.180162 1917.692757 79 78 46
-413.150692 499.585199 1887.572861 127 122 74
-376.421571 669.552612 1740.850449 112 116 83
-407.886982 533.051825 1870.584679 129 128 93
-394.140029 590.616655 1815.882492 135 123 116
-572.120810 -123.601353 2531.833076 154 144 65
-366.488600 701.869440 1709.324455 157 158 165
-572.247601 -129.801834 2538.150978 153 143 58
-572.247601 -129.801834 2538.150978 153 143 58
-410.118866 458.456707 1898.808670 164 159 148
-589.584732 -197.321236 2611.883545 255 249 243
-574.040031 -155.031145 2557.825470 116 100 39
-569.770288 -139.486504 2544.809532 82 74 34
-568.666410 -120.618188 2540.139771 93 79 28
-568.666410 -120.618188 2540.139771 93 79 28
-371.568513 664.832592 1744.973755 199 195 181
-370.932007 671.012640 1742.185402 186 182 176
-417.386723 374.420929 1950.829887 156 159 115
-369.198847 684.225035 1736.297417 217 213 176
-574.112129 -168.898404 2574.874687 140 128 71
-412.142897 429.301882 1925.746727 167 163 119
-378.144240 628.857803 1777.685356 165 164 144
-398.970485 543.266582 1866.037941 158 155 120
-594.460964 -222.790933 2664.032555 255 249 244
-369.807720 659.902096 1753.838158 101 107 72
-417.839718 360.535169 1968.187332 135 140 104
-366.765022 675.076723 1743.640137 148 150 104
-389.979672 569.020987 1841.055107 187 177 163
-389.979672 569.020987 1841.055107 187 177 163
-391.901636 562.696886 1849.317169 106 106 86
-402.432537 449.808025 1906.647301 190 184 140
-563.696146 -146.359169 2560.616493 164 149 72
-399.938035 507.119083 1890.076637 111 107 51
-395.294619 540.776587 1870.790100 177 170 125
-373.461175 629.128075 1786.625481 115 122 92
-559.550428 -125.814342 2557.234383 152 133 59
-394.722843 476.702356 1892.782021 113 112 86
-567.339945 -190.513730 2605.826950 198 188 125
-399.583006 454.674768 1917.676163 156 153 136
-395.293260 491.641331 1898.156929 88 86 43
-392.291427 516.399622 1884.368896 202 197 147
-398.214459 433.219147 1919.759560 158 151 133
-389.954543 533.979750 1873.622131 61 63 29
-395.223665 465.934896 1904.272270 200 186 117
-389.762163 525.661278 1876.291847 200 194 175
-322.979212 825.939274 1599.256039 187 187 163
-369.711375 625.581932 1793.865967 199 197 172
-387.873697 529.186916 1874.775314 199 197 169
-397.167230 432.054567 1928.269386 152 148 122
-335.355163 755.867672 1661.124611 162 161 159
-373.714757 593.184900 1823.272324 200 200 182
-427.695084 345.294118 2057.692337 117 158 172
-388.113880 496.909380 1894.243813 194 186 151
-386.854792 496.216345 1891.428185 194 186 151
-386.973524 508.681917 1890.249062 186 181 136
-385.221028 518.339682 1882.800484 206 202 171
-384.949803 528.375912 1881.091499 106 107 70
-384.949803 528.375912 1881.091499 106 107 70
-389.280891 492.141438 1902.681160 103 101 74
-383.221292 522.040129 1881.745911 81 83 52
-390.588927 429.782867 1925.564384 170 168 122
-557.627344 -199.623716 2627.329254 203 197 145
-557.627344 -199.623716 2627.329254 203 197 145
-384.756613 498.462629 1893.940353 181 180 152
-385.350037 504.035282 1895.045471 51 52 39
-385.350037 504.035282 1895.045471 51 52 39
-385.473204 483.626842 1902.982140 78 81 71
-389.769387 450.258255 1924.345016 30 32 32
-382.931638 513.446140 1889.270592 111 104 71
-383.606362 493.283367 1899.122810 160 159 145
-383.606362 493.283367 1899.122810 160 159 145
-372.174978 552.063847 1849.868584 212 206 194
-535.945654 130.434966 2507.253456 254 255 253
-553.066635 -179.622805 2628.664589 161 143 78
-375.728464 537.100506 1869.947052 201 199 186
-548.642588 -189.905834 2615.412521 70 61 23
-370.014358 560.229206 1847.017097 219 214 204
-386.340809 438.500595 1927.218819 144 138 105
-386.340809 438.500595 1927.218819 144 138 105
-380.569696 482.995224 1904.897499 94 91 72
-378.146911 507.954931 1894.081497 183 179 167
-538.627958 -122.160852 2584.188271 126 115 56
-377.463651 500.051022 1898.484039 178 176 160
-547.779417 -211.164832 2640.880966 181 169 100
-545.410252 -201.404715 2632.789612 85 79 29
-536.236715 -144.048595 2592.646408 144 123 55
-554.289722 -245.205712 2681.653214 255 246 244
-378.537583 439.790630 1928.746796 47 49 25
-529.524469 -106.271577 2575.750732 254 251 247
-527.564144 -105.820060 2570.632935 254 251 247
-537.123775 -171.636081 2618.085098 126 112 55
-535.342741 -156.218588 2613.078117 71 58 30
-537.032127 -186.622643 2628.235054 40 34 22
-518.694019 157.741249 2496.151352 23 22 17
-381.664300 369.741464 1964.123917 66 74 46
-539.473772 -218.650866 2648.021126 19 16 14
-493.431568 309.794044 2391.438675 38 36 20
-493.431568 309.794044 2391.438675 38 36 20
-371.522570 441.477823 1930.779076 41 43 25
-371.522570 441.477823 1930.779076 41 43 25
-499.466562 278.983903 2432.303810 254 253 254
-371.223688 457.223797 1934.566307 55 59 32
