ply
		format ascii 1.0
		element vertex 19282
		property float x
		property float y
		property float z
		property uchar blue
		property uchar green
		property uchar red
		end_header
-454.848194 -128.952217 1748.696899 255 255 252
-447.256899 -76.339674 1709.212112 72 65 44
-359.783316 734.960508 1546.599960 130 134 140
-351.123333 844.568253 1540.745831 45 49 43
-352.705455 851.695728 1538.684750 161 159 127
-357.758212 842.947197 1535.892677 143 145 119
-362.918305 847.650337 1525.979614 73 76 62
-365.333819 846.866035 1521.375465 39 43 26
-370.410395 820.064545 1533.553314 169 175 163
-370.655203 823.571587 1534.022045 108 125 116
-450.941944 603.395033 1177.790165 160 169 140
-456.413984 553.972149 1105.904198 158 171 139
-466.503811 601.924610 1171.187496 158 171 139
-9.543363 592.760897 1762.942696 255 255 255
-23.614629 478.794241 1823.154640 255 255 255
-33.688462 476.709318 1829.118538 53 53 53
-43.154106 845.280552 1624.359131 157 156 153
-43.655393 848.496819 1623.027039 101 103 106
-43.655393 848.496819 1623.027039 101 103 106
-36.102504 471.612310 1833.460808 101 99 99
-36.102504 471.612310 1833.460808 101 99 99
-45.021513 843.262386 1623.142052 65 70 66
-45.021513 843.262386 1623.142052 65 70 66
-40.696687 508.933115 1795.900154 255 255 255
-37.357506 528.758287 1773.208237 255 255 255
-52.251464 847.887135 1610.783958 40 47 39
-41.096821 492.616796 1791.295815 55 56 43
-61.377752 485.106182 1837.250328 129 128 127
-52.143091 501.097059 1796.770668 133 129 106
-50.911772 534.292459 1772.706604 81 80 79
-47.423267 560.326624 1742.396355 255 255 255
-49.916124 659.353352 1690.839386 137 136 129
-50.895804 709.933662 1657.774544 88 104 118
-61.290258 835.256100 1609.366989 97 103 106
-56.434774 686.977959 1683.073425 168 172 180
-63.254738 535.550785 1784.361458 72 73 73
-58.683640 552.902651 1763.989830 119 121 123
-64.491373 540.433264 1779.299927 109 114 115
-64.283526 529.508114 1783.834648 30 31 32
-53.651589 626.630020 1704.282379 158 158 157
-65.297270 527.086353 1785.860062 44 44 42
-64.352375 549.050999 1770.313454 57 59 59
-57.735842 559.088802 1748.604393 69 71 71
-56.250495 660.073042 1680.639076 148 152 154
-50.047046 572.281837 1715.695381 91 92 96
-63.519973 661.374521 1695.251846 156 159 169
-80.735046 483.968687 1831.820869 110 117 109
-61.955583 659.796143 1688.729668 105 115 132
-60.897857 558.870935 1743.039131 117 124 126
-64.260042 572.632885 1738.946152 74 85 93
-74.152994 526.179838 1785.668564 94 99 109
-69.833511 552.180099 1760.573006 49 59 79
-65.690929 692.087650 1671.869659 52 58 69
-65.266782 607.450008 1715.163422 154 155 160
-71.044177 809.902287 1613.348770 117 121 127
-75.605375 554.198122 1765.018654 116 140 159
-67.000729 639.841986 1695.073700 62 71 80
-67.650950 651.994419 1689.751816 90 101 115
-68.135035 611.782789 1709.877205 97 107 124
-73.433870 792.392349 1610.156059 125 129 128
-87.216568 519.610786 1786.157036 166 165 157
-83.595872 556.652117 1748.558617 30 34 41
-75.910193 817.452717 1587.532806 123 127 129
-75.910193 817.452717 1587.532806 123 127 129
-102.506638 524.562454 1778.845024 114 119 123
-106.965220 527.421474 1773.506927 119 120 120
-77.727616 -127.472413 2014.290237 90 75 45
-110.780275 381.934476 1830.533791 89 85 63
-40.881890 -32.119045 1870.314217 40 36 28
-101.589799 834.423447 1569.583225 136 138 139
-79.871541 -87.881547 1976.297569 134 119 67
-93.867081 -27.340740 1963.226128 111 111 95
-93.867081 -27.340740 1963.226128 111 111 95
-94.015288 -25.362679 1950.529480 105 108 96
-82.519192 11.855540 1899.090958 37 33 27
-106.227601 -80.859828 1993.026924 137 127 84
-131.063294 393.016243 1822.833252 186 185 176
-101.055038 -48.876902 1958.170319 30 27 30
-99.220121 3.407926 1924.292564 107 104 97
-125.912678 554.129124 1718.934250 172 171 171
-78.441960 51.053798 1841.557503 30 25 22
-111.473835 27.252713 1920.325279 107 121 104
-111.656713 27.784571 1920.406532 107 121 104
-53.713918 172.219861 1702.438354 255 255 255
-53.713918 172.219861 1702.438354 255 255 255
-133.976078 -112.846887 2017.062187 153 137 79
-62.101918 177.909136 1705.212402 79 76 46
-69.669652 198.722970 1710.804939 68 68 63
-136.438847 -166.218030 2039.748573 135 126 74
-115.240002 151.582563 1840.594482 41 35 29
-115.240002 151.582563 1840.594482 41 35 29
-117.362404 132.661927 1850.917244 35 30 29
-136.326623 30.133939 1941.130829 29 25 22
-111.283112 144.398570 1827.671432 254 253 254
-138.858676 57.430702 1933.032036 147 139 103
-68.316126 182.431591 1700.035667 57 61 61
-78.930038 219.501591 1708.685684 150 162 148
-143.854964 70.817792 1928.331947 59 50 42
-172.334456 499.837923 1796.141052 106 122 105
-154.066277 42.722920 1947.695541 183 175 118
-165.586984 524.433374 1762.299919 49 55 41
-85.904068 190.349030 1711.016846 38 33 35
-153.633702 117.606270 1908.404160 190 178 114
-154.641044 -10.637397 1966.599464 190 177 125
-158.702850 -61.143053 1987.681770 29 23 20
-161.358058 -128.250945 2017.813873 36 32 16
-90.156919 75.755453 1746.964264 79 72 65
-161.743522 -261.363769 2069.850731 255 254 255
-162.631857 129.648459 1902.691269 175 170 121
-99.234587 105.043375 1749.557304 71 58 40
-166.170108 11.200770 1956.226349 54 48 40
-165.161049 136.978519 1898.550034 52 44 34
-164.927280 102.864325 1911.287880 68 58 49
-166.754150 17.841876 1952.043343 55 44 34
-100.032544 172.059119 1717.786026 110 106 67
-102.535772 148.694253 1733.819199 30 25 24
-101.284492 91.769063 1749.026108 101 98 72
-169.483709 134.001791 1899.283981 174 168 115
-193.914008 483.663034 1812.067795 33 43 44
-106.977952 139.323115 1735.539436 82 79 61
-106.977952 139.323115 1735.539436 82 79 61
-169.802713 -268.428016 2063.664246 254 255 251
-171.749687 122.780371 1901.970291 169 158 101
-101.193643 124.188292 1721.744537 23 19 18
-175.989985 141.925037 1895.726776 62 55 43
-107.098091 175.415993 1699.626160 54 51 34
-181.667697 159.151709 1893.013763 19 16 14
-179.514432 146.859467 1892.575645 153 151 109
-174.766326 72.424126 1909.821320 108 104 87
-175.979340 83.388978 1906.930161 42 37 35
-152.910638 117.864263 1818.799782 17 15 15
-194.096899 -71.385431 1997.084045 128 121 82
-209.349251 486.456633 1810.232353 28 39 48
-196.089172 -84.022045 2001.465034 117 112 91
-196.089172 -84.022045 2001.465034 117 112 91
-124.952340 125.833178 1726.681709 48 42 32
-196.007490 141.000354 1900.105858 66 54 47
-114.510882 160.720873 1681.581497 255 255 255
-216.625452 -137.580752 2059.050560 191 184 121
-120.229733 172.520924 1688.769913 255 255 255
-194.814551 101.900172 1903.796768 175 157 96
-195.245862 92.719346 1908.136940 51 46 36
-138.999343 211.191630 1712.504959 255 255 255
-206.081724 -21.740179 1973.162460 48 44 42
-125.742579 125.654006 1705.265808 105 89 69
-207.320666 -10.969479 1961.602592 51 49 44
-133.206892 79.976469 1733.818054 26 22 20
-176.936758 758.848190 1584.204197 155 147 138
-176.936758 758.848190 1584.204197 155 147 138
-216.203475 11.638186 1956.886292 111 113 85
-216.882586 -23.579046 1964.786530 73 68 57
-223.153806 180.108654 1904.242325 26 22 21
-228.046966 174.835026 1904.951668 40 39 27
-216.467452 -396.748710 2078.330612 122 104 71
-216.277957 116.875648 1890.040970 33 28 24
-160.978723 63.769984 1745.944405 61 62 52
-245.740914 -205.639291 2061.137581 201 187 132
-253.330255 -161.014366 2055.110741 194 181 105
-251.313663 -111.999178 2025.767517 158 147 98
-246.528077 -58.313984 1991.675949 34 27 24
-245.234561 -28.325346 1971.669960 77 76 57
-256.883287 251.243377 1898.523331 14 14 11
-260.510421 260.337114 1902.664185 14 14 11
-200.683713 765.565062 1573.023415 153 146 133
-260.368013 -176.095212 2049.696732 46 41 32
-262.462115 -161.560524 2042.494583 148 146 101
-414.995480 864.648342 2100.193787 255 255 255
-265.166688 -209.722590 2055.958366 152 148 97
-257.457948 46.847171 1946.841812 92 88 62
-270.228696 -196.308064 2055.088615 89 81 55
-254.649544 121.346521 1909.481239 33 32 30
-203.229904 210.763454 1738.863564 255 255 255
-279.883695 -98.535115 2043.847847 190 183 126
-207.782650 834.749699 1539.977264 136 139 93
-267.358804 -297.497654 2057.357979 148 144 93
-268.576813 138.205457 1910.283089 78 71 62
-282.153988 -209.462500 2050.815964 191 182 123
-275.398636 128.747928 1918.567085 64 52 37
-265.728641 495.814562 1774.784279 58 82 81
-277.084661 158.059645 1907.507133 59 54 38
-283.122540 27.327633 1960.701370 81 68 45
-267.568159 499.265718 1774.021530 73 93 88
-265.396714 441.527367 1777.809525 178 179 160
-281.655979 178.882372 1891.531754 16 14 15
-300.499678 -94.127434 2021.511459 124 125 80
-293.260050 -263.315225 2049.321365 45 37 31
-305.270743 -80.213374 2027.629089 124 125 80
-294.760227 -252.419949 2047.111511 161 159 112
-302.607799 -140.642762 2031.394005 98 95 71
-296.539640 -41.999245 1984.699249 148 133 99
-276.268029 -424.658060 2037.885284 15 13 12
-304.134202 -129.753768 2027.271652 110 107 87
-286.760449 148.149014 1899.938965 191 179 122
-286.760449 148.149014 1899.938965 191 179 122
-304.272914 -167.709148 2036.551094 75 69 61
-295.692611 25.785953 1956.215286 177 165 110
-256.679153 263.441563 1778.288078 20 16 15
-296.319056 72.993201 1938.950920 66 58 36
-296.121812 58.769763 1941.416359 57 51 45
-306.863070 -187.533784 2038.706017 175 172 121
-265.976739 221.178222 1810.927773 92 100 87
-307.967639 -183.471906 2039.769173 175 172 121
-255.894351 281.656432 1763.880539 91 91 69
-301.558280 -36.815375 1977.040100 157 146 101
-294.920468 108.488190 1916.119003 75 65 38
-275.329208 503.512955 1752.115440 37 37 13
-294.652057 118.760240 1910.156250 75 68 47
-298.149395 54.210478 1934.655190 152 144 91
-311.006188 -122.638345 2018.724251 166 171 110
-294.756627 129.326892 1903.984451 64 54 30
-293.680549 138.534927 1897.146797 119 108 68
-282.353759 497.234201 1762.396431 28 33 26
-280.783033 420.359087 1773.068428 104 119 93
-280.783033 420.359087 1773.068428 104 119 93
-317.620707 -191.872537 2035.195732 152 147 110
-317.620707 -191.872537 2035.195732 152 147 110
-274.440622 242.874193 1795.281982 19 19 15
-322.326779 -385.670972 2091.501236 131 118 54
-272.264862 285.289693 1774.147797 114 110 80
-322.734213 -194.057608 2033.565712 40 33 28
-245.623016 233.140302 1700.325203 253 254 253
-267.357183 274.576521 1748.586845 20 16 17
-324.424934 -109.593761 2004.577446 71 65 56
-331.041646 -73.595530 2005.458069 154 153 103
-259.673476 263.138556 1708.749580 42 41 42
-252.238846 771.063614 1554.679394 124 116 79
-338.408709 -175.684524 2025.002289 126 118 98
-339.042640 -173.209941 2025.674629 126 118 98
-320.517778 -372.594190 2010.506630 42 31 34
-348.403072 -98.574013 2008.288765 84 73 70
-344.835377 -405.922413 2064.501190 119 127 105
-306.417513 417.866802 1765.953064 77 100 87
-288.081741 549.944973 1681.919670 87 80 19
-349.431849 -310.985065 2048.764038 49 43 35
-306.553626 200.662041 1810.138321 39 32 31
-310.452414 403.172684 1774.799156 73 103 102
-328.203869 154.293942 1875.610542 86 80 66
-337.192774 74.410260 1916.522408 76 70 42
-337.192774 74.410260 1916.522408 76 70 42
-297.741461 323.724365 1745.532227 42 48 56
-358.924699 -76.196915 2001.336098 149 145 107
-350.109482 -99.701077 1980.647278 16 13 13
-359.997344 -398.851776 2068.013382 255 255 255
-359.997344 -398.851776 2068.013382 255 255 255
-350.955224 -273.977351 2014.576149 172 165 112
-337.499046 122.306323 1882.262230 21 19 21
-353.614497 -41.786405 1962.239456 92 83 65
-318.327665 299.778700 1789.128494 125 130 96
-364.659429 -137.899733 2010.020447 122 117 86
-318.798018 416.698503 1763.822174 51 80 75
-333.896589 152.270961 1859.727478 19 16 17
-347.169781 15.319254 1923.775101 38 30 30
-362.093735 -224.660301 2015.445137 33 29 22
-342.888927 100.832081 1891.828537 49 42 37
-356.210613 -404.237270 2029.696274 250 248 239
-356.210613 -404.237270 2029.696274 250 248 239
-369.094872 -187.686217 2013.562965 114 102 65
-364.969873 -135.011816 1988.413620 110 101 71
-348.861122 56.347579 1903.560257 53 52 40
-350.152087 29.989335 1912.036514 44 40 31
-368.115306 -278.858161 2022.140694 255 255 255
-347.026753 78.710270 1891.607475 54 51 38
-347.026753 78.710270 1891.607475 54 51 38
-325.184536 417.408609 1762.344933 119 143 126
-346.108913 108.194697 1880.597878 165 154 96
-370.424199 -177.007079 2005.746269 53 46 30
-329.451394 427.701044 1769.373322 119 143 126
-329.376602 412.727499 1767.613029 114 147 144
-369.668531 -227.851915 2003.845787 23 21 16
-350.803638 97.895139 1883.394814 99 97 60
-357.884097 65.142900 1908.997726 56 52 49
-371.716237 -133.371198 1985.669327 72 64 48
-362.651634 -28.558621 1939.410591 34 30 27
-371.022296 -198.359287 1994.218636 170 165 116
-361.435580 -5.353105 1928.434372 36 33 29
-373.584199 -210.097837 1995.143890 23 18 16
-352.945256 115.556133 1871.419716 41 36 31
-367.611027 -20.730390 1937.121010 31 26 25
-378.332496 -234.685850 1996.795082 27 23 24
-358.919358 113.126040 1875.931358 139 131 76
-358.919358 113.126040 1875.931358 139 131 76
-402.676296 -324.531984 2079.068565 170 155 85
-378.148508 -218.966579 1988.595772 119 114 86
-347.762585 262.258434 1802.927017 60 59 44
-382.983279 -201.457763 1974.572754 170 162 102
-321.626163 571.793222 1667.435455 192 181 141
-321.626163 571.793222 1667.435455 192 181 141
-385.184550 -225.204015 1976.283646 173 165 112
-350.259686 295.925188 1786.775780 92 87 48
-357.557464 245.448613 1812.395477 63 62 43
-382.834125 -172.876346 1951.417160 39 34 22
-416.002417 -302.225852 2069.377899 170 160 97
-320.572877 615.812349 1643.620682 152 155 86
-320.572877 615.812349 1643.620682 152 155 86
-328.679895 569.192553 1669.201088 128 134 47
-393.185806 -252.827835 1972.139549 62 58 31
-385.987258 -61.231762 1917.348480 202 186 134
-350.683069 349.354434 1751.719284 125 122 103
-356.953692 381.688571 1765.341568 48 47 48
-336.265564 560.304499 1675.874519 163 160 146
-338.712001 542.441130 1684.057808 124 127 120
-391.672635 -269.804502 1954.060364 253 254 254
-391.672635 -269.804502 1954.060364 253 254 254
-342.865801 529.020262 1696.330070 112 115 107
-385.966110 -41.556287 1901.821327 196 180 123
-363.482475 282.161832 1789.287376 68 57 36
-366.778398 280.185008 1789.673805 166 160 95
-354.886723 529.288626 1713.606453 48 54 55
-354.886723 529.288626 1713.606453 48 54 55
-339.740920 596.660900 1659.457207 156 161 172
-340.351105 587.149191 1660.788727 138 145 155
-336.462951 619.392395 1643.408585 147 156 165
-370.806479 296.525145 1780.412674 158 155 90
-349.377799 552.990532 1684.670258 95 100 108
-360.861611 520.014095 1721.555710 165 156 69
-333.253622 666.280794 1619.285774 180 178 178
-374.078631 232.174182 1793.230438 26 27 28
-363.778996 344.124675 1748.774338 47 45 43
-363.778996 344.124675 1748.774338 47 45 43
-383.222675 103.215933 1834.526253 26 24 27
-375.642085 194.661188 1800.666428 39 39 42
-387.082577 68.899858 1847.508812 50 48 36
-342.789721 589.823580 1652.423859 161 162 166
-397.028279 -207.481885 1898.678589 191 183 122
-361.580324 526.672125 1708.035469 31 34 38
-380.606174 188.548279 1799.277496 30 33 32
-362.514663 543.666124 1705.659676 133 139 145
-375.975108 224.559307 1780.800438 55 69 83
-375.975108 224.559307 1780.800438 55 69 83
-404.558468 -157.468307 1908.296776 116 108 61
-408.723211 -188.352799 1922.259521 205 196 140
-407.327843 -159.882236 1914.214897 191 183 122
-347.375011 570.754766 1654.149437 48 56 67
-393.022156 64.947122 1846.465111 196 188 132
-379.577112 168.485510 1793.844032 254 254 253
-373.978162 107.653642 1776.335907 255 255 255
-383.617258 208.407617 1791.110229 22 18 18
-385.491776 192.445636 1797.694016 179 178 125
-381.709743 220.133567 1780.833626 27 24 25
-360.743332 378.575993 1699.999428 85 103 115
-381.178737 489.153099 1748.033524 94 111 103
-362.933064 555.068684 1681.677628 101 105 109
-351.307774 610.820961 1639.262581 156 160 165
-389.653420 185.136652 1794.822884 72 71 56
-373.172879 530.141735 1712.473297 133 132 76
-327.245450 826.736450 1544.102001 57 65 59
-356.313133 580.103588 1653.094101 147 148 150
-356.313133 580.103588 1653.094101 147 148 150
-352.191687 629.879189 1632.013321 167 168 173
-355.603337 601.812267 1643.281746 176 177 181
-416.189051 -168.566906 1894.975662 152 144 84
-386.032367 248.288012 1765.147209 24 20 21
-417.864466 -159.929192 1897.470856 152 144 84
-417.861319 -154.651761 1896.524048 112 104 61
-384.391975 274.222851 1755.346680 26 23 23
-370.168781 296.715879 1707.590103 76 74 61
-370.168781 296.715879 1707.590103 76 74 61
-405.646801 54.648036 1836.095047 86 70 48
-370.195055 550.593567 1686.106873 39 43 34
-394.247937 187.611222 1789.749336 254 255 254
-392.077065 221.076274 1778.173828 105 110 91
-421.488380 -161.124527 1896.912956 194 186 127
-360.877562 571.860647 1651.787186 77 80 71
-372.929549 547.997236 1689.952469 55 56 43
-376.949191 528.585863 1703.802299 47 45 19
-395.156217 191.509044 1784.279060 73 69 61
-370.490742 554.954433 1678.239059 122 123 113
-345.979786 697.812462 1589.706230 151 154 162
-526.037025 952.125835 2116.800690 253 254 253
-382.955456 523.943138 1716.415215 146 143 89
-367.318439 561.137867 1665.117264 98 97 55
-423.090506 -147.908151 1885.371399 136 122 79
-409.102535 70.593810 1824.503136 139 128 93
-380.398870 279.820681 1716.563797 255 255 255
-380.398870 279.820681 1716.563797 255 255 255
-404.360914 94.885820 1802.116966 27 20 22
-400.042343 222.763586 1777.590752 40 42 34
-336.087275 849.982071 1536.544418 160 161 122
-402.089739 195.755816 1784.918022 254 253 254
-379.103851 547.287798 1689.057922 130 129 90
-394.286823 285.469961 1753.076172 29 26 26
-404.213333 225.097799 1786.539650 55 52 40
-346.463847 794.822741 1569.221210 145 147 120
-333.765435 822.337723 1523.620415 134 141 123
-397.168469 282.910919 1749.689674 166 162 130
-403.675413 238.094211 1770.388794 180 173 114
-392.324066 286.926866 1729.949760 253 253 252
-432.519341 -163.304532 1872.044945 166 157 101
-395.469475 497.345257 1718.202972 46 48 30
-405.283642 228.276062 1760.078049 53 49 39
-388.422656 326.936054 1699.984360 255 255 255
-412.910128 207.362604 1782.444000 254 254 253
-402.925730 285.512614 1742.009926 41 37 31
-398.776650 283.335161 1727.914238 50 46 37
-398.776650 283.335161 1727.914238 50 46 37
-408.406162 257.730699 1758.458328 198 187 137
-407.234097 228.656220 1754.176331 75 70 56
-433.578014 -120.563805 1850.891495 188 180 113
-433.354807 -121.056211 1843.576813 192 184 116
-403.979301 277.160120 1731.996727 254 254 252
-322.727823 409.649372 1467.492962 91 92 60
-351.888824 847.082996 1542.834473 39 45 46
-310.022402 364.497209 1425.784206 42 44 40
-319.004631 373.043871 1453.246403 61 64 37
-309.530210 367.135406 1422.253227 164 160 130
-407.576466 275.739741 1736.096191 79 74 50
-426.734257 -112.102973 1806.225967 37 32 29
-317.339468 374.756646 1440.293694 167 166 129
-353.710914 854.721546 1541.555500 169 166 139
-415.796089 -104.884219 1764.846230 100 90 53
-413.904619 -106.927061 1755.883217 254 254 255
-355.013609 847.117233 1542.892742 174 168 135
-410.717630 273.127580 1734.103584 251 251 248
-303.685904 366.137934 1384.646797 255 255 255
-305.945206 371.865320 1389.798164 255 255 255
-315.427589 357.124662 1406.656647 254 254 251
-465.304899 -140.116704 1859.869194 255 255 255
-447.153568 -115.813792 1797.389221 93 86 65
-363.909006 848.807240 1529.403019 36 38 31
-326.333261 293.906593 1401.906490 255 255 255
-450.148058 -147.536480 1798.102188 254 254 254
-360.719800 343.570805 1510.265160 111 122 118
-426.333570 -63.089252 1715.108490 254 254 254
-430.882406 -59.457606 1723.090744 44 39 40
-371.431899 823.462677 1536.676311 170 176 168
-438.844824 -77.187669 1733.835030 33 26 22
-434.845924 -64.622074 1712.594032 89 83 79
-369.021034 846.950245 1518.124294 39 49 36
-445.595980 -66.238344 1738.493919 36 27 21
-373.039246 839.797783 1516.130066 133 151 136
-373.012090 839.421940 1511.323452 49 84 90
-233.646679 167.784834 711.834383 204 192 190
-233.646679 167.784834 711.834383 204 192 190
-300.626564 247.809911 725.973511 154 153 153
-519.802475 809.304237 1461.418056 165 151 153
655.955696 -11.921967 1254.973888 254 252 251
661.476517 -7.775608 1230.717754 251 250 252
-32.422617 836.120224 1627.264214 161 160 157
-38.081735 487.578344 1852.266693 59 60 66
-43.357924 847.961140 1622.822952 97 100 100
-44.403273 483.925009 1840.980339 107 109 110
-52.230030 801.387215 1645.835686 101 103 108
-57.553595 494.086599 1844.391060 115 117 117
-57.553595 494.086599 1844.391060 115 117 117
-45.731837 499.658871 1817.350197 48 46 46
-54.144061 795.725298 1647.076797 120 123 127
-54.144061 795.725298 1647.076797 120 123 127
-52.970374 848.419094 1611.771011 39 44 44
-56.171876 807.556438 1638.641167 113 121 123
-61.729687 691.608620 1686.312294 162 167 174
-51.463300 608.111572 1717.414665 254 245 242
-64.863104 834.471130 1598.719311 111 115 121
-64.430982 697.429323 1676.289177 134 138 143
-62.972945 649.667692 1699.745369 156 160 168
-83.933765 489.179373 1834.760284 110 117 110
-100.707293 680.688238 1746.361351 139 140 139
-65.834999 685.651112 1681.241035 142 143 148
-65.509880 565.527821 1747.817421 122 128 130
-68.281502 691.927862 1677.679062 106 112 121
-67.177808 664.409637 1687.619400 65 72 85
-69.182891 675.369453 1683.533669 92 99 110
-67.482632 566.243410 1743.865776 51 54 54
-67.574179 610.736847 1717.584801 157 158 161
-74.781656 715.911293 1668.815422 180 178 178
-83.524722 537.254810 1789.717865 33 42 47
-69.625086 606.443310 1721.086121 148 156 162
-67.731524 579.097939 1730.313110 45 50 53
-83.333474 518.730497 1791.644859 141 143 116
-78.280908 558.745718 1756.584740 45 55 63
-77.190018 818.608665 1589.309692 122 125 126
-82.624429 649.794245 1696.515846 126 133 134
-94.739801 524.901772 1785.120583 47 51 52
-72.671217 389.953756 1813.069725 177 174 158
-75.153619 393.611693 1814.704323 177 174 158
-104.066074 527.198935 1780.375099 116 118 122
-114.134061 525.693607 1774.409294 57 58 41
-112.072003 440.680408 1810.338211 190 186 160
-60.814679 -121.413040 2013.248444 135 124 90
-119.148755 548.925734 1732.766533 170 169 168
-88.124049 -117.204988 2020.732307 142 128 75
-130.542374 386.486053 1825.976753 93 92 64
-81.170934 -37.838724 1943.534088 55 52 45
-127.266359 556.445026 1720.425987 171 168 168
-103.532171 -191.878438 2053.368759 160 153 92
-132.419324 785.378838 1580.761433 119 112 97
-53.086418 193.319273 1710.194588 56 58 59
-161.515939 447.385502 1801.836205 168 176 148
-53.171974 195.508194 1700.322723 147 161 143
-119.951451 162.024891 1845.038795 42 35 31
-146.327329 109.948540 1917.473602 61 53 44
-151.568139 -114.483047 2024.562836 67 60 46
-119.646919 158.545446 1823.262787 38 30 27
-168.169248 63.411653 1935.450554 119 110 70
-169.601285 132.087386 1904.986191 53 44 38
-168.358588 90.213412 1920.060158 62 53 44
-97.457886 119.040656 1751.716614 129 114 77
-187.455583 -144.744289 2054.837227 16 14 14
-171.780515 -246.367669 2066.952133 119 108 47
-105.356050 155.304539 1736.531639 29 25 23
-103.920627 151.629639 1735.217476 28 26 26
-94.174010 64.583200 1753.358841 40 36 29
-175.461662 132.674968 1890.506744 144 140 98
-105.950284 168.864131 1726.878929 105 101 62
-110.551047 147.201967 1739.364243 78 77 58
-110.260379 170.872414 1719.823265 30 26 23
-193.052125 -276.639915 2096.284676 255 255 255
-111.105239 174.682820 1713.916969 95 91 58
-200.464678 -7.900064 1971.429443 133 128 93
-212.806463 517.135334 1758.643913 133 125 54
-114.900815 172.725344 1704.009056 151 138 97
-202.063727 -35.379791 1980.235481 41 35 31
-203.628016 -63.415670 1993.160248 32 28 26
-204.446912 -42.647803 1979.279709 38 35 31
-206.381798 -20.827073 1973.404121 52 47 44
-135.621154 85.712194 1736.520004 21 19 15
-131.326032 103.983033 1716.220474 117 103 85
-137.191164 84.613436 1727.853584 134 122 100
-233.846354 424.442911 1784.565735 92 113 94
-250.234556 -114.979959 2031.420135 47 39 34
-263.756251 254.852843 1907.500839 161 149 94
-244.673872 163.057733 1897.960472 33 32 37
-244.748354 121.529269 1914.499664 170 157 103
-246.392703 166.446507 1899.368286 33 32 37
-247.324347 -50.766897 1988.282585 103 101 85
-247.324347 -50.766897 1988.282585 103 101 85
-271.329331 255.492282 1910.905838 15 13 12
-257.017756 -142.524850 2041.056633 43 37 30
-245.298195 427.241325 1782.934380 77 98 89
-256.179142 -206.540251 2063.235664 191 186 128
-175.121284 159.700167 1735.317039 255 255 255
-253.002691 -67.693448 1997.664833 32 27 26
-249.552703 -6.328458 1962.446213 82 82 70
-261.668468 -172.355628 2051.039505 48 42 37
-254.898930 -20.022492 1972.649193 41 35 30
-267.620468 137.083912 1912.685776 30 27 26
-272.255254 1.940250 1965.627670 21 16 16
-267.448568 181.557310 1885.426140 19 16 18
-228.598070 252.495146 1732.984543 20 18 17
-285.995626 492.374468 1768.307495 81 108 97
-298.877883 -194.152093 2047.157860 45 37 33
-295.798159 76.257300 1934.938049 93 83 55
-292.572665 134.192216 1906.422424 177 165 109
-297.375512 36.249724 1949.950027 62 53 39
-295.963621 92.219549 1922.812462 60 52 31
-265.701318 220.655751 1796.158409 26 22 21
-303.052688 -262.368298 2045.275688 101 100 88
-297.844028 97.522962 1905.453682 143 133 77
-288.139510 515.653467 1735.411263 164 165 82
-272.473550 266.012502 1786.527443 30 28 25
-274.310732 261.979651 1791.693306 124 122 88
-296.591973 121.005654 1888.213348 145 132 74
-307.263708 -249.423528 2039.495087 103 99 76
-316.522288 -196.092427 2034.124374 148 147 115
-317.814827 -263.837361 2037.464142 141 143 93
-295.231628 182.649827 1821.907234 75 69 48
-286.970091 547.758055 1680.053329 82 81 23
-305.754137 416.416311 1764.915276 83 103 90
-320.833731 -294.300270 2026.786232 152 154 104
-328.225517 -259.131193 2028.793335 96 84 64
-322.274566 142.867398 1880.630875 169 165 106
-336.490488 72.066206 1915.628242 81 76 47
-321.679902 143.386114 1855.124283 14 12 12
-288.554096 100.870824 1790.368462 23 19 20
-320.067000 -364.418221 2006.602287 255 254 254
-341.550064 -323.015547 2040.352631 91 87 45
-351.084709 -198.764467 2014.889145 48 38 37
-344.079828 38.114628 1923.880768 44 37 34
-347.387075 23.072596 1933.300209 54 47 41
-342.376328 -278.783512 2011.355782 175 176 126
-352.509356 -46.392027 1961.029625 85 80 59
-575.205755 800.290298 2232.397461 42 35 25
-344.825006 89.996904 1899.950027 41 35 34
-343.802857 113.233960 1879.301262 50 42 31
-351.171255 -40.187728 1941.616249 48 40 33
-361.056161 -394.063711 2068.947411 255 254 254
-345.986271 87.006712 1884.832954 144 138 84
-334.155989 286.795592 1791.526222 153 152 94
-349.543118 93.720859 1881.608963 83 79 55
-338.821578 260.640597 1805.828094 151 151 102
-294.789743 36.263508 1763.102531 32 29 26
-339.789510 421.228027 1757.423210 56 90 112
-357.042456 -324.111509 2008.142853 255 255 255
-362.851477 -48.504230 1942.386055 28 24 23
-351.704121 111.462665 1869.628716 41 33 27
-321.002555 570.295334 1666.362762 184 174 132
-359.595108 -389.432311 2028.434944 75 58 36
-368.823743 -232.241416 2003.012276 26 21 15
-341.955519 280.530190 1793.221664 155 146 88
-372.016525 -167.562485 1988.645744 182 170 110
-347.522330 410.468054 1758.020401 123 150 150
-376.035953 -202.751613 1982.640266 30 30 25
-356.391478 241.873765 1810.554695 54 52 36
-317.939258 57.651347 1765.919304 255 255 255
-351.898670 411.863613 1750.976181 45 70 89
-344.485784 541.902637 1697.195435 134 142 155
-379.773760 -225.288677 1977.324677 44 43 25
-343.367553 558.194685 1676.726341 103 109 117
-387.560272 -264.631343 1989.350128 254 255 250
-389.285064 -259.080052 1990.833473 254 255 250
-387.976408 -239.701867 1982.246399 201 188 137
-347.220802 552.562857 1680.589485 30 34 44
-358.792591 514.747810 1717.880821 160 154 69
-369.004941 239.657712 1808.596039 133 140 96
-347.830296 557.503176 1675.352287 29 31 36
-388.004708 -203.851628 1961.153221 185 178 116
-342.950773 573.448181 1657.744026 126 133 142
-335.117626 665.449572 1614.837837 119 124 128
-378.213334 29.829195 1877.126884 45 40 30
-370.970035 246.159768 1804.142380 152 161 116
-361.219454 338.535476 1753.892136 147 142 92
-352.073312 553.479052 1678.862000 90 101 107
-366.133571 296.424532 1774.640846 102 95 62
-366.133571 296.424532 1774.640846 102 95 62
-366.133571 296.424532 1774.640846 102 95 62
-391.158438 -262.775445 1969.523239 53 48 29
-326.631784 796.093655 1552.708530 146 148 151
-326.631784 796.093655 1552.708530 146 148 151
-346.445870 599.878263 1648.108292 108 118 131
-328.199792 803.083229 1553.667068 110 117 109
-328.199792 803.083229 1553.667068 110 117 109
-409.532833 -389.922833 2034.103203 86 79 65
-350.577760 573.840952 1657.581520 35 42 52
-350.577760 573.840952 1657.581520 35 42 52
-385.994720 -293.592286 1945.454025 255 255 255
-355.803800 542.616749 1673.446465 87 93 94
-352.285171 574.167395 1657.435799 36 40 48
-333.687305 814.224052 1552.685452 160 163 165
-339.243650 802.573586 1563.367939 153 154 138
-350.382066 619.928360 1632.204628 162 165 169
-353.833175 589.137554 1646.736717 160 164 167
-352.025461 622.416210 1634.538651 162 165 169
-362.328005 554.843807 1671.086502 56 62 70
-373.521423 528.848982 1704.759598 145 145 106
-349.450278 680.770779 1606.536674 176 175 176
-369.454503 548.674583 1684.717751 42 47 41
-357.573152 579.095793 1645.385933 127 128 114
-357.573152 579.095793 1645.385933 127 128 114
-345.844412 697.523928 1589.413452 143 150 158
-384.583664 189.341366 1796.130753 169 169 119
-339.719033 852.431965 1537.387657 23 25 27
-397.759795 -3.391121 1864.315414 66 54 33
-398.251939 -138.867116 1891.473961 163 151 80
-369.229913 556.321383 1668.625259 64 67 52
-405.023432 -156.510568 1909.220695 113 108 60
-388.058996 199.597669 1788.305283 24 23 19
-367.748880 545.100927 1660.121918 72 75 52
-369.308853 271.991038 1718.592262 63 61 49
-382.529712 291.600084 1744.106102 92 90 79
-401.532030 25.648814 1845.869255 104 90 63
-353.686643 689.921474 1587.809753 188 186 182
-368.284082 558.742332 1651.186943 140 142 142
-355.794001 686.771107 1591.968060 185 181 162
-391.359806 240.171099 1769.524765 188 171 107
-405.369377 52.983773 1835.426712 83 67 51
-403.556490 490.241623 1738.904572 109 132 119
-403.556490 490.241623 1738.904572 109 132 119
-393.191075 254.866147 1758.797455 27 25 19
-354.829788 846.572304 1542.525959 175 167 132
-417.186022 -205.581927 1904.785156 180 173 119
-386.385727 286.051464 1730.620003 32 27 27
-397.295856 491.975689 1714.266968 102 105 70
-415.245056 -136.977386 1871.596909 127 115 65
-397.503996 284.226251 1743.551826 167 155 114
-397.503996 284.226251 1743.551826 167 155 114
-391.248202 -119.725454 1801.795769 90 81 53
-391.248202 -119.725454 1801.795769 90 81 53
-402.902937 -117.109203 1828.947449 131 122 71
-423.614693 -192.155278 1894.096565 163 153 100
-398.199821 287.722683 1739.392090 197 187 136
-398.199821 287.722683 1739.392090 197 187 136
-402.592945 236.504149 1759.226990 147 130 89
-407.365704 485.104895 1722.517586 33 39 40
-406.747150 241.642046 1757.119370 182 163 112
-295.201087 436.347532 1433.371544 167 165 140
-301.986599 397.986245 1455.825806 164 158 89
-415.204668 491.685629 1729.401779 25 32 33
-419.992447 -129.018581 1839.669800 157 146 90
-419.992447 -129.018581 1839.669800 157 146 90
-402.668190 279.462147 1724.815750 253 253 251
-411.619043 -15.039843 1797.340965 255 255 255
-368.400264 831.320381 1541.552067 117 122 107
-406.288624 268.803835 1733.706474 71 69 53
-429.259920 -145.849633 1861.302948 147 128 76
-369.820237 826.708603 1540.845966 166 171 160
-413.626242 -109.066117 1800.737000 97 94 49
-428.098917 475.456429 1742.185593 71 96 120
-291.940808 406.103897 1397.325897 127 122 84
-371.442080 823.296070 1536.692429 171 174 167
-370.054960 837.565804 1530.060959 158 164 129
-370.054960 837.565804 1530.060959 158 164 129
-415.175056 -108.932412 1793.286705 104 100 55
-437.572479 -159.822118 1849.909210 164 164 100
-373.521662 822.517776 1533.071518 158 168 161
-293.574619 396.481156 1387.968636 254 255 254
-407.180500 434.802961 1669.217300 72 88 104
-371.875477 844.040203 1512.677288 38 62 67
-391.894126 405.136919 1615.484810 90 111 118
-314.002538 355.388093 1412.547684 97 98 66
-376.934814 826.329803 1513.700008 36 54 62
-382.675958 793.426418 1524.773788 201 200 196
-378.083014 832.190704 1504.122829 207 206 204
-317.875242 371.008086 1402.072334 255 255 255
-413.470268 -75.956666 1707.229614 108 90 59
-413.470268 -75.956666 1707.229614 108 90 59
-442.645073 -113.985586 1783.674431 74 68 53
-370.173478 349.724960 1530.162621 61 69 71
-351.093769 324.924231 1474.862003 86 103 109
-383.419371 844.209957 1500.947762 71 92 105
-329.000878 294.964290 1412.275696 104 114 111
-336.071992 294.492865 1423.164749 154 163 154
-435.969448 -90.213126 1727.409363 32 26 25
-451.546812 -121.051335 1756.793785 110 99 48
-456.705761 -163.713253 1769.616318 255 255 255
-455.990410 -95.295197 1739.088058 183 168 86
-441.886330 -82.316780 1691.180038 81 69 60
-447.811079 -73.664725 1675.191879 134 114 83
710.454988 116.574848 1257.552910 252 241 237
708.321095 118.299866 1256.216812 253 239 237
703.665209 35.331991 1313.436604 48 44 46
703.665209 35.331991 1313.436604 48 44 46
694.103861 34.448084 1317.159843 253 249 248
694.103861 34.448084 1317.159843 253 249 248
687.371826 45.869687 1309.811974 27 28 28
694.777632 149.126887 1214.822006 251 243 239
708.166504 -16.521697 1307.923603 104 98 76
693.643713 9.016820 1305.968857 254 248 249
676.840734 186.938262 1197.677994 39 39 25
676.840734 186.938262 1197.677994 39 39 25
675.313187 35.771760 1304.127598 123 127 109
681.644249 141.244912 1219.513226 128 131 117
681.644249 141.244912 1219.513226 128 131 117
698.482227 2.759451 1292.782402 84 77 71
703.675079 -19.324425 1301.093197 70 71 60
703.675079 -19.324425 1301.093197 70 71 60
704.426956 -36.672759 1305.895329 252 247 245
692.128658 -20.588762 1307.154369 58 62 66
700.470829 -35.135463 1303.298473 252 246 235
678.359938 151.420999 1201.684666 252 243 237
684.132624 126.481390 1207.995415 30 30 26
685.641241 135.877144 1198.321438 252 244 236
685.641241 135.877144 1198.321438 252 244 236
667.800379 109.704006 1241.047192 47 46 40
672.394753 191.840458 1175.262451 70 70 55
703.850555 -52.544177 1303.353882 95 92 78
699.359512 -42.594177 1298.278904 75 70 46
699.229622 -61.656350 1307.753372 127 114 95
699.229622 -61.656350 1307.753372 127 114 95
693.816853 -51.535678 1300.378323 90 79 69
674.114895 154.494369 1180.298615 40 33 28
682.917881 -37.868345 1292.538357 254 248 247
652.170229 19.140495 1292.224884 63 59 48
685.106945 -26.181459 1273.132610 79 77 65
-34.777713 847.876644 1621.544647 147 147 147
-35.270366 491.454220 1848.286057 254 250 247
-44.942737 849.023628 1624.437141 100 101 103
-32.587472 493.186426 1836.139107 254 249 245
-35.006708 489.510727 1837.509727 243 237 217
-36.845967 492.290449 1832.822227 254 251 245
-54.154879 795.558405 1647.218704 143 144 149
-50.786251 486.116934 1839.517212 118 118 119
-52.817351 488.248301 1840.549088 118 118 119
-52.817351 488.248301 1840.549088 118 118 119
-59.736520 778.593588 1651.923180 125 127 136
-50.648677 532.708502 1784.467697 125 119 104
-47.099718 498.591328 1799.536133 66 59 37
-66.029876 824.791336 1618.978310 168 169 172
-51.580024 511.205626 1793.968201 140 137 89
-61.321712 486.354351 1819.669342 150 148 134
-61.321712 486.354351 1819.669342 150 148 134
-59.652716 548.025751 1774.324608 136 138 140
-50.303388 565.012121 1746.519279 255 246 243
-67.416537 770.223808 1644.142342 133 135 137
-66.741949 842.299461 1597.885036 167 170 173
-75.444973 490.279150 1826.449013 107 109 105
-60.021716 629.383993 1708.938026 50 53 58
-83.020294 488.285351 1833.902931 110 117 110
-70.950657 828.756428 1602.867508 122 123 125
-65.106702 669.537210 1690.141296 149 152 155
-56.908345 579.097939 1730.252457 70 73 79
-55.826569 579.834509 1726.092148 246 237 223
-64.149761 564.190006 1746.567345 119 127 130
-77.796984 558.388805 1767.827606 116 139 159
-64.366388 594.301701 1724.724770 157 159 165
-67.262590 660.917997 1686.545181 37 46 58
-73.294610 833.010101 1589.661980 109 112 117
-69.305724 642.685843 1697.481155 74 83 96
-89.009482 533.469629 1782.030869 51 62 66
-84.005773 592.066479 1729.039574 132 145 156
-108.997786 487.838650 1828.170013 94 104 103
-103.184450 526.302385 1779.519081 115 121 119
-107.853055 526.054811 1780.556679 112 111 97
-66.071516 -163.890135 2043.929672 147 133 88
-76.051593 -140.376616 2031.384659 161 147 90
-127.172744 556.569433 1720.184517 172 171 169
-133.595228 388.842034 1819.654655 174 174 163
-151.901782 519.067907 1770.303726 185 174 113
-42.953381 -20.667213 1888.670349 160 143 87
-69.923139 31.902105 1883.083153 255 255 255
-69.923139 31.902105 1883.083153 255 255 255
-162.726545 519.988012 1765.226173 64 69 48
-153.479517 383.264518 1819.446182 60 58 53
-200.309968 532.028198 1813.841438 109 126 111
-150.260210 541.072941 1720.627785 149 147 78
-155.253899 553.407049 1716.760826 88 89 48
-115.278304 -4.111231 1945.953178 55 68 72
-129.306602 -183.296335 2063.315582 254 254 254
-134.308779 -228.505039 2075.866127 254 255 254
-147.448289 -175.684583 2064.213371 33 31 28
-118.124378 159.838152 1834.258270 254 254 254
-64.367080 188.299298 1718.309021 255 255 255
-160.461640 74.010020 1932.762718 196 180 116
-157.951617 -141.550815 2028.354263 152 141 87
-160.240519 -214.921093 2067.193413 187 178 119
-197.743285 279.726243 1877.023125 254 254 254
-165.993416 43.353945 1944.097710 89 74 45
-167.897320 -8.216143 1968.297005 67 57 33
-171.623170 123.700774 1902.338028 164 157 97
-127.275193 147.537267 1816.620827 32 27 24
-171.435905 -223.762631 2067.907906 39 36 23
-174.853647 -88.792557 2005.213356 125 125 90
-172.123766 -127.599728 2018.251038 30 27 25
-168.588614 70.061076 1913.703728 53 45 37
-179.367220 -55.710077 1991.802979 27 23 21
-183.445060 143.920088 1897.645760 162 158 113
-175.866508 76.093543 1911.123848 102 101 80
-108.509588 86.760587 1790.321732 255 255 255
-175.107718 -255.407691 2068.963623 254 254 253
-104.851890 143.124866 1743.212700 36 33 31
-105.039930 155.451524 1735.941696 29 25 22
-195.263886 -65.923238 1994.107056 40 33 26
-94.174105 61.490619 1761.131096 252 254 254
-97.341418 54.386097 1763.970566 30 27 25
-214.022851 -137.924039 2049.212074 182 171 109
-200.512981 -57.356328 1983.190346 79 76 65
-110.631108 171.880674 1719.992828 28 25 23
-226.221132 165.727901 1905.787849 191 178 120
-233.708048 517.641115 1750.110245 175 161 83
-237.746096 199.799001 1901.103020 175 169 110
-212.538028 -46.058270 1973.105049 51 50 43
-212.538028 -46.058270 1973.105049 51 50 43
-235.193539 426.860142 1785.685349 90 114 96
-236.970282 400.883055 1793.015480 72 108 96
-246.898222 -141.706383 2052.151108 194 184 117
-137.051833 88.719875 1737.651825 23 21 19
-245.592356 -54.858011 1987.148094 104 104 82
-253.203416 118.214393 1913.301468 157 149 98
-260.899115 -175.367820 2051.008224 47 42 39
-262.102747 158.142734 1899.746132 26 31 36
-236.987638 -335.041261 2060.673714 255 255 255
-249.344850 -365.271068 2085.968971 58 47 40
-249.344850 -365.271068 2085.968971 58 47 40
-269.523144 425.068569 1776.023483 116 127 97
-235.072589 831.679344 1537.858009 154 161 135
-288.602829 -133.182716 2040.601158 183 175 116
-302.453208 -93.738300 2034.286118 190 183 118
-290.767646 8.910318 1960.429955 181 170 114
-290.767646 8.910318 1960.429955 181 170 114
-238.770008 -69.606954 1900.756645 109 100 64
-238.770008 -69.606954 1900.756645 109 100 64
-275.660682 -390.035558 2099.951553 255 255 255
-235.387373 240.723586 1762.193108 39 34 30
-292.784119 78.062981 1931.844902 173 164 107
-218.527126 379.485369 1673.921204 63 70 40
-294.928026 38.651270 1946.759796 56 47 45
-295.688701 78.433329 1929.398537 59 51 27
-289.458728 156.920087 1885.497856 184 171 115
-303.217578 -162.735295 2037.717247 120 117 99
-289.878678 149.913883 1883.379173 61 50 31
-297.716212 45.019630 1939.126968 122 113 79
-299.011111 -12.039351 1964.962196 44 38 30
-296.255302 58.240378 1929.752159 154 143 83
-297.903848 7.414871 1951.769829 167 149 97
-296.886301 -160.514641 2019.054604 137 141 97
-298.239970 -3.993728 1956.306839 163 147 93
-291.214848 157.152402 1875.200081 150 142 93
-302.936554 -36.177152 1968.844414 33 28 26
-298.601460 -6.552097 1948.027420 49 42 34
-294.327307 -375.908184 2090.858841 162 154 86
-275.574470 227.816868 1807.942581 95 100 71
-275.574470 227.816868 1807.942581 95 100 71
-318.414736 -174.598503 2030.230141 71 66 56
-279.160142 289.998603 1770.692444 19 17 17
-289.173889 551.321077 1682.581139 79 77 20
-283.814168 -387.154531 2046.178627 26 24 23
-307.780623 -274.483752 2043.504906 36 32 32
-305.642533 416.330338 1764.702034 83 102 90
-313.864684 -297.642541 2041.829300 25 20 22
-323.390889 492.290115 1748.977661 31 37 36
-344.001245 -79.056895 2004.362869 98 94 75
-300.591540 176.938379 1820.880508 19 13 10
-343.233967 -122.425640 2012.510109 105 95 89
-331.454253 -2.695013 1942.940521 92 87 67
-337.550759 -68.193793 1972.629929 36 32 29
-336.163068 17.404027 1937.390518 36 30 28
-335.153985 47.734126 1923.870277 42 37 31
-320.641398 -294.785142 2026.712227 168 163 112
-304.039311 179.787564 1815.354538 124 118 76
-325.057817 398.875713 1769.840050 111 144 140
-336.767459 30.951977 1930.271721 38 34 23
-326.769710 417.178249 1762.237358 127 150 136
-340.053964 116.429114 1897.029686 73 66 53
-322.574329 265.023685 1807.697678 65 61 53
-327.484322 407.554436 1762.830544 110 145 145
-358.692503 -100.497627 2003.928566 104 99 79
-356.881261 483.272171 1781.922531 150 171 169
-333.066463 400.079918 1766.574478 46 69 93
-340.568256 118.153775 1882.399940 71 67 64
-336.909938 138.506567 1867.780113 132 139 107
-331.847095 -332.817101 2024.251366 26 23 23
-346.074200 73.980153 1896.269608 103 101 78
-346.484041 38.442484 1909.782600 119 114 79
-350.357246 -43.500432 1946.589851 129 123 81
-335.541177 254.891419 1809.275818 142 143 93
-346.530533 59.855235 1899.680901 142 137 89
-321.451068 570.940351 1666.970825 188 180 139
-363.926172 -183.077145 2014.925766 61 49 43
-344.054508 512.589264 1719.515419 162 158 71
-317.716861 481.132793 1678.046608 36 42 41
-341.528773 290.647960 1787.190628 153 140 89
-360.498619 -2.382680 1922.104454 30 26 24
-339.344883 525.018883 1696.949577 50 51 24
-341.421032 -369.496441 2014.249802 159 139 107
-351.189566 431.770182 1750.055122 132 161 167
-359.936905 58.927631 1896.463013 35 29 30
-353.486824 -390.041852 2041.260338 61 58 45
-372.105622 -143.097079 1982.566261 76 64 44
-334.257126 602.756023 1651.196098 124 127 132
-346.982312 532.102156 1699.178886 119 125 125
-371.666408 -224.489617 2005.609703 26 24 18
-386.693430 -335.907650 2072.330666 153 136 83
-351.283717 544.721699 1699.643898 21 26 32
-365.091300 97.308105 1879.528046 169 159 95
-344.761348 544.563723 1686.458397 35 41 47
-352.581048 -335.882306 2003.928566 255 255 255
-356.960297 243.157172 1811.138344 53 48 35
-319.857740 784.759188 1554.900837 86 93 105
-319.857740 784.759188 1554.900837 86 93 105
-357.616591 409.983158 1751.452637 45 72 95
-332.927823 697.945738 1601.590919 190 187 187
-371.696901 -130.403697 1951.146698 119 100 48
-376.118636 -203.116870 1982.931328 29 25 23
-375.966287 -91.962105 1940.933609 70 59 37
-360.047793 420.404530 1737.643623 112 142 159
-363.595557 266.970015 1795.461464 48 41 37
-343.181372 606.725025 1641.970634 157 162 169
-343.455601 606.970167 1642.296028 157 162 169
-377.902317 -182.226026 1968.969345 203 195 124
-341.866088 692.184544 1609.426117 104 109 117
-334.198451 814.410782 1553.634548 163 166 166
-343.513918 637.197876 1622.640800 92 100 112
-368.053722 532.491207 1700.657463 66 68 69
-346.231484 658.611298 1615.937996 157 160 167
-351.247001 595.841408 1645.470810 152 156 166
-382.121038 -193.488383 1958.447075 172 167 98
-340.808296 703.479815 1589.284611 174 176 179
-378.502512 30.876747 1877.363777 51 43 32
-369.091868 303.918099 1770.853424 141 145 94
-371.257806 306.375718 1773.276138 141 145 94
-349.800873 665.429163 1612.491608 165 168 175
-378.832459 110.527384 1844.849396 176 178 135
-360.669947 568.523073 1662.258911 119 119 105
-369.917965 549.328852 1685.379601 48 53 48
-351.943803 652.362490 1618.095016 174 173 172
-378.027034 62.662673 1855.280685 108 104 93
-364.443779 391.796684 1723.831177 48 64 81
-389.893913 -238.703465 1971.306419 176 174 126
-346.650839 843.354797 1544.273949 137 144 125
-386.249828 -70.605141 1903.313255 164 150 87
-382.255101 49.661565 1855.299759 73 72 62
-377.774906 88.030356 1834.648323 82 89 65
-391.629910 -261.406064 1970.071793 64 61 44
-385.565090 -57.288414 1894.524765 178 171 107
-386.030960 489.784098 1722.098541 67 70 34
-396.297479 493.756866 1739.114761 121 132 122
-361.139512 570.283127 1646.527481 55 61 59
-386.041379 -278.478718 1955.738449 239 240 237
-408.909941 -433.772326 2043.671608 254 254 249
-357.996464 565.101862 1638.303566 155 155 155
-368.204737 85.244578 1804.405022 16 13 13
-360.558891 652.528048 1612.255096 170 168 159
-392.341614 519.139719 1710.009384 153 146 103
-403.334951 489.822388 1738.556862 109 132 123
-370.147943 544.363260 1657.313728 43 48 52
-385.927844 211.798811 1785.923767 147 151 106
-397.862172 -26.609430 1878.973389 62 49 37
-360.940671 672.279406 1594.877720 195 193 193
-359.474587 679.364967 1589.561653 190 187 187
-388.420129 202.950597 1784.254837 101 107 93
-388.420129 202.950597 1784.254837 101 107 93
-352.909398 300.077987 1680.685425 255 255 255
-361.094689 841.205215 1536.016178 45 46 31
-402.922535 -164.048791 1907.400894 112 109 62
-390.729928 275.029922 1754.960251 136 137 112
-403.185320 49.641818 1839.678955 196 182 123
-402.553844 -89.254868 1874.995804 24 19 20
-377.736664 523.366880 1645.584869 95 103 37
-386.323094 503.931046 1664.894676 72 75 42
-339.186621 472.218275 1580.050373 161 157 91
-365.775084 846.712208 1526.450539 138 142 104
-386.980844 491.124821 1667.610359 149 148 89
-407.311010 32.488039 1835.542679 193 177 120
-398.545313 286.744690 1744.853973 165 156 117
-365.444374 848.480320 1522.971821 51 54 47
-408.161926 68.071157 1821.699333 137 124 94
-408.769608 77.427733 1819.164085 127 115 85
-399.627900 290.950751 1741.264534 203 194 139
-410.801506 98.618847 1814.175797 179 176 137
-405.184603 258.668971 1758.284760 26 24 18
-410.863590 216.981435 1777.638817 180 165 105
-315.174508 467.206573 1521.328545 139 137 75
-369.354606 845.994854 1522.791576 141 145 112
-424.920321 -157.986391 1894.903564 193 187 132
-408.480453 264.417410 1747.421646 83 80 54
-395.035410 -101.412535 1816.013908 254 254 254
-403.164530 273.939800 1729.842186 253 253 251
-394.949293 320.728612 1700.149727 255 255 255
-408.176994 217.365837 1753.361511 248 246 240
-405.629587 221.913099 1745.622253 71 63 49
-375.315237 827.090931 1522.568893 128 140 132
-409.766436 265.331626 1737.391472 248 247 241
-424.786997 -155.486238 1876.081848 159 149 92
-412.964916 259.434295 1741.283798 254 255 255
-395.992184 -111.058390 1798.816490 254 254 253
-422.107792 13.755402 1810.872650 255 255 255
-373.703003 836.168480 1504.782009 89 112 115
-391.303587 51.988554 1733.384514 255 255 255
-288.388658 540.816927 1405.250168 179 175 163
-376.457119 834.699440 1504.799652 30 50 55
-299.242640 415.183163 1449.280071 146 146 93
-295.655847 440.680695 1432.447910 163 161 136
-381.170130 840.081692 1503.423595 208 205 199
-301.875210 404.187918 1448.881817 172 171 117
-304.097795 402.130985 1428.913021 161 155 130
-386.893439 396.054721 1595.498657 129 136 119
-408.757019 -102.284729 1750.119019 255 255 255
-408.757019 -102.284729 1750.119019 255 255 255
-297.128296 436.470747 1401.073742 86 87 76
-297.128296 436.470747 1401.073742 86 87 76
-294.377208 437.728453 1394.691181 254 253 254
-417.010164 -105.968630 1765.578461 94 86 56
-323.052597 365.574646 1462.421036 163 159 96
-313.327479 372.150898 1429.946136 41 42 37
-354.480529 378.652811 1508.105469 30 33 28
-354.480529 378.652811 1508.105469 30 33 28
-372.275066 367.198157 1544.304848 107 116 105
-292.075109 541.090250 1339.324188 99 102 82
-312.220740 329.786372 1422.309017 68 63 39
-358.396053 354.798508 1509.721851 63 76 84
-291.495442 545.536709 1330.809593 254 249 248
-289.168501 626.365852 1306.106186 154 156 156
-415.586710 -69.158912 1710.161400 105 93 67
-446.237755 -99.965245 1774.910164 155 138 77
