ply
		format ascii 1.0
		element vertex 3508
		property float x
		property float y
		property float z
		property uchar blue
		property uchar green
		property uchar red
		end_header
-260.270452 253.108287 1514.375210 116 129 96
-229.528403 481.189346 1410.938549 216 204 168
-377.784276 -98.313081 1794.845581 58 47 29
-374.378443 -93.053216 1798.945618 116 102 45
-374.378443 -93.053216 1798.945618 116 102 45
-225.142097 346.897268 1461.669540 132 130 86
-211.739373 502.468538 1402.380753 117 116 120
-211.739373 502.468538 1402.380753 117 116 120
-369.588661 -121.126151 1820.541763 35 28 18
-207.723927 505.325556 1401.492500 195 192 160
-236.860013 253.577805 1516.277790 106 117 81
-373.644948 -168.258429 1850.412941 178 167 98
-197.182512 536.987257 1387.078667 125 119 123
-366.855597 -197.388792 1862.509155 255 255 255
-210.635400 392.397189 1458.577728 95 94 60
-197.030365 492.787695 1410.615158 165 160 146
-190.757072 534.819746 1389.554119 201 194 168
-336.451268 -40.805790 1780.327606 255 255 255
-361.438417 -177.479482 1863.479614 189 180 114
-368.468904 60.826254 1812.285614 131 111 72
-188.782287 267.347169 1470.026493 96 91 67
-181.200087 542.077637 1387.078190 146 146 145
-348.995090 180.040121 1758.664131 165 144 87
-344.523907 159.970653 1766.854095 251 252 249
-194.423747 370.531440 1467.159271 107 105 66
-341.147065 154.199660 1769.120979 255 255 255
-343.175864 -170.774782 1867.536736 43 36 15
-174.415457 269.696736 1472.412014 83 89 57
-346.225905 56.158853 1816.452408 133 115 86
-339.765000 88.920903 1798.172951 106 86 38
-186.885905 393.382382 1463.437653 135 125 68
-165.765822 551.164389 1385.432911 143 146 149
-326.396179 151.874888 1764.567757 119 102 50
-326.396179 151.874888 1764.567757 119 102 50
-343.517733 130.987084 1800.946617 253 252 252
-343.517733 130.987084 1800.946617 253 252 252
-161.937869 547.155666 1387.345219 216 203 173
-198.281598 226.662803 1539.582539 198 194 177
-341.742444 141.960037 1803.438187 255 255 255
-158.691812 551.374388 1385.541916 139 142 150
-315.584517 190.153313 1754.893875 157 136 82
-174.927795 357.243443 1471.701908 101 100 57
-363.873172 -353.215170 1998.531532 68 52 34
-162.446022 282.748294 1476.761818 54 60 36
-269.444013 -104.766381 1777.236557 153 140 84
-362.582803 -338.548923 2005.550194 74 57 49
-169.459772 393.957877 1465.502739 132 125 75
-257.872272 -74.184757 1751.803589 175 161 113
-301.644111 201.274300 1747.965050 76 65 28
-307.468390 187.440479 1763.061905 138 120 71
-303.853202 157.333970 1766.688728 170 149 96
-269.616485 13.413657 1754.706001 19 14 13
-260.839605 6.270641 1753.658485 116 104 69
-262.307978 39.816174 1752.336502 132 119 94
-253.437686 14.066234 1750.576591 125 119 91
-258.199072 60.282797 1752.405930 153 130 87
-252.682567 29.917228 1753.050232 91 82 70
-150.615144 394.788337 1469.083118 115 112 54
-256.899333 68.383849 1752.538300 119 101 69
-261.690450 90.907019 1755.389786 86 76 41
-257.397199 91.215616 1749.961853 86 76 41
-146.519184 390.376520 1469.635391 189 188 122
-252.539515 122.278583 1741.463089 177 158 118
-242.051959 -178.487372 1815.393639 68 62 28
-242.051959 -178.487372 1815.393639 68 62 28
-226.705289 -126.000988 1774.396133 196 188 148
-138.097847 319.542265 1483.252048 156 148 85
-220.144749 -60.844207 1745.335960 14 13 13
-220.144749 -60.844207 1745.335960 14 13 13
-241.138363 89.139420 1745.008469 46 39 25
-122.851753 505.918169 1417.480946 132 132 140
-133.755946 379.750705 1476.631355 156 154 96
-203.097510 -65.432417 1737.686729 178 169 88
-224.408269 -175.812721 1814.046669 153 139 85
-207.276821 -107.910061 1764.809990 166 148 87
-125.729918 357.638407 1476.784325 75 83 42
-125.729918 357.638407 1476.784325 75 83 42
-130.682850 395.362830 1474.492836 99 102 56
-145.781672 224.528456 1558.714676 152 154 88
-121.728516 350.496531 1479.747868 130 131 81
-220.051742 196.009612 1712.684059 126 107 52
-138.110197 224.782372 1557.563114 144 140 76
-225.849390 -221.033311 1859.956169 166 158 90
-105.665481 527.135038 1410.731411 205 215 222
-261.362052 -348.498845 1974.829674 182 170 122
-262.006378 -411.989450 1997.018051 185 174 121
-114.879739 372.805691 1480.900383 97 100 52
-114.879739 372.805691 1480.900383 97 100 52
-105.161691 503.201342 1422.782230 144 142 151
-105.629015 330.155253 1482.271767 115 116 97
-208.411288 204.678535 1716.765594 68 56 25
-100.269485 510.887623 1419.275379 152 148 151
-101.261830 333.193541 1478.075504 162 165 117
-96.537137 297.502899 1484.275246 177 171 104
-96.405399 297.466135 1484.125996 177 171 104
-201.423311 -206.575632 1846.148491 114 104 42
-88.203698 13.035461 1579.481030 102 91 66
-93.842983 525.374413 1412.764740 164 161 165
-170.459199 -38.553843 1738.941002 179 171 120
-208.718419 211.587524 1733.115387 72 63 33
-164.601469 -12.119149 1721.066856 177 161 116
-243.233562 -370.098877 1987.036705 142 122 78
-208.408332 145.161545 1756.317711 84 77 58
-241.030669 -356.843019 1981.995773 48 39 24
-195.844018 -204.887581 1847.542953 96 87 29
-236.594105 -413.262892 1993.605232 210 203 149
-168.437946 -54.812324 1748.688698 14 12 11
-92.867023 500.751209 1426.681805 148 155 167
-99.550182 373.313046 1482.917690 114 107 56
-187.426579 -173.040032 1828.244400 92 86 32
-203.760099 -247.732759 1885.954475 47 45 27
-106.962109 254.639578 1541.409969 100 99 70
-84.984851 537.749815 1407.664490 136 136 147
-230.522943 -335.041642 1970.148659 41 31 17
-204.831386 162.642336 1759.197807 88 81 59
-230.206013 -334.861112 1969.655991 41 31 17
-196.248055 -239.393830 1876.680374 167 162 93
-107.618856 240.143561 1550.611496 175 174 143
-83.472943 508.996916 1423.636246 215 209 206
-219.841313 -317.900896 1959.620094 137 118 68
-84.942025 350.820637 1483.059883 127 129 79
-222.112203 -344.607782 1979.141045 36 23 14
-225.598216 -297.180462 1971.740532 36 29 20
-176.724195 -164.233291 1833.668327 156 150 82
-217.894506 -327.187872 1968.097496 174 152 92
-213.638210 -415.887117 1992.910576 155 140 67
-198.766637 -263.551402 1913.674355 38 30 19
-221.940708 -49.336734 1888.117981 54 49 45
-72.332370 566.254044 1394.849110 191 185 157
-66.322970 614.813232 1368.182373 162 170 182
-186.891246 -240.835524 1887.303734 92 85 38
-74.553698 530.989456 1413.571072 115 124 135
-73.904848 530.818558 1412.779808 115 124 135
-223.611689 -344.607401 2006.206512 136 117 67
-138.751113 -48.303527 1740.852356 98 90 39
-132.043135 -9.930177 1717.802048 69 57 45
710.348797 168.972480 328.904867 168 168 172
-72.195703 494.831228 1432.998562 142 145 155
-176.785898 -234.824204 1885.292625 110 96 50
-165.110004 -159.305823 1837.328339 161 148 83
-163.966382 -142.861259 1831.036186 81 78 41
-168.873870 -168.997777 1849.991417 77 70 26
-129.153383 -18.022038 1721.697617 118 110 86
-166.432166 -180.785990 1854.463959 163 144 76
-170.968759 205.099225 1733.531380 255 255 255
-158.357632 -138.118708 1836.528587 83 78 40
-115.630412 -23.913695 1728.114700 31 28 24
-62.238228 369.074464 1488.872623 157 155 79
-62.463999 396.329260 1483.413410 125 128 96
-126.620781 -66.350716 1775.316429 187 183 111
-162.783158 -234.460664 1909.564209 36 32 16
-111.004961 72.860098 1698.526573 99 84 64
-117.588699 134.761536 1690.937042 198 178 125
-35.817596 640.151930 1354.549503 166 169 169
-109.719253 160.979033 1680.350113 21 18 16
-100.131774 -1.931610 1720.290565 179 163 102
-61.016119 256.689572 1549.582767 103 122 44
-45.283580 436.411524 1462.415218 148 141 124
-43.584156 318.891931 1500.795555 53 56 30
-135.406494 -188.123262 1876.617622 185 176 105
-91.993284 6.904268 1720.659828 168 153 88
-93.077075 160.243106 1670.152664 122 102 53
-93.401140 168.716741 1670.652008 113 97 44
-88.024622 43.779647 1705.357552 179 157 94
-95.175248 -18.377826 1743.565178 21 16 18
-128.453791 -124.173927 1853.704453 190 180 94
-108.874762 -49.306780 1787.647438 84 80 46
-89.427328 10.284497 1725.639725 175 162 85
-123.114872 -81.046146 1829.971313 160 146 93
-135.589826 -71.002847 1856.636810 171 160 91
298.314095 108.797491 978.631878 163 147 78
-86.709994 12.222905 1729.420090 106 89 44
-125.510168 -153.638971 1872.737312 38 34 27
-33.160305 409.638548 1473.063850 170 164 97
-127.483273 -228.831363 1908.811569 166 150 79
-34.435111 373.310661 1492.866802 108 108 77
-80.709183 153.705490 1670.969009 163 142 70
-107.035446 -51.268011 1802.093697 143 132 76
-120.097661 -155.584240 1872.084045 154 150 83
-120.097661 -155.584240 1872.084045 154 150 83
-79.212761 158.612740 1672.189713 191 172 111
-85.727113 13.114351 1739.336777 140 118 72
-117.128181 -120.081806 1855.221748 180 169 95
-27.517244 356.380987 1490.755749 63 66 42
-118.947124 -189.955866 1887.001991 80 69 35
-80.764228 49.813184 1718.817902 164 144 88
-116.018403 -223.222542 1906.595802 187 177 121
-109.470975 -68.928367 1843.064117 42 38 27
-105.071545 -47.894868 1826.526070 119 105 61
-66.168118 152.018774 1674.448013 118 96 38
-17.954460 400.386429 1477.588272 103 110 107
-65.903831 156.322348 1673.585701 181 161 95
-105.157912 -185.815454 1887.243843 169 154 81
-105.157912 -185.815454 1887.243843 169 154 81
-16.201286 430.047226 1463.916969 103 106 101
-14.939836 428.501797 1465.386105 200 198 188
-109.451902 -224.417281 1917.269516 181 172 89
-14.835659 425.224018 1468.024254 69 73 67
-13.786076 387.636209 1479.799652 181 178 147
-9.651569 342.629600 1487.562275 86 86 55
-13.436203 438.131857 1461.778355 75 79 69
-97.053897 -37.284097 1823.871994 18 18 17
-13.715050 432.463837 1465.207291 118 121 106
-92.978334 -109.067702 1845.069122 46 43 25
-90.468258 -107.956493 1840.845108 46 43 25
-106.456053 -220.015669 1923.026276 126 111 59
-60.510838 167.656231 1676.826286 192 168 97
-6.099730 386.330867 1481.506443 163 161 101
26.194119 643.734312 1313.822174 194 190 184
-41.808107 196.710849 1641.753960 23 18 15
0.345888 476.314354 1440.918255 214 210 207
-0.007114 463.788748 1446.720982 207 205 204
-3.859460 433.946085 1468.108845 201 196 187
30.851918 660.957432 1305.003452 102 104 103
-100.811791 63.192242 1830.179787 60 60 45
-48.628896 183.618343 1666.594887 148 128 76
25.928864 615.641832 1335.413742 167 163 160
-68.185878 -142.589557 1839.575005 90 84 35
-94.223070 49.458444 1825.751305 56 50 31
-1.115410 404.688120 1479.954910 181 170 132
-85.156095 -66.639084 1851.298714 12 12 11
9.967300 556.970739 1401.074409 184 182 182
-21.613525 233.783770 1598.721218 108 118 71
1.392845 428.787899 1471.918964 119 111 93
5.279198 460.130405 1451.237392 185 182 172
8.443760 479.057693 1439.470482 202 200 198
13.244984 536.680222 1407.337475 199 198 195
3.922384 397.658563 1482.844925 176 167 111
-75.460654 -47.357017 1843.767357 38 34 33
5.606831 396.592450 1485.895824 84 80 35
10.309115 480.741739 1442.851639 132 130 119
-19.474404 227.485442 1610.040092 81 85 37
-75.597143 -65.992695 1856.782532 15 12 12
13.009676 348.957491 1491.188908 177 163 113
2.707796 438.631153 1480.293179 179 178 176
1.631318 435.704136 1484.274960 58 62 76
-73.528862 -65.678704 1853.516960 15 12 12
13.677336 366.220927 1485.763550 184 173 131
12.955551 330.492496 1502.314472 185 179 132
10.633633 483.347416 1448.221016 133 134 128
-72.451031 -126.477706 1887.825203 182 173 99
16.978523 371.795225 1487.366962 167 159 124
18.339442 536.245537 1419.981766 163 163 164
-62.414855 -38.089752 1840.563774 157 130 72
22.838622 337.124491 1498.586750 188 183 153
-77.036959 -164.887547 1935.577774 180 167 101
24.534886 340.325427 1494.858932 76 80 73
-59.858072 -76.786971 1863.491058 153 140 82
18.444718 388.776946 1493.691444 56 58 63
-61.628485 -109.111500 1885.335541 136 116 57
-61.628485 -109.111500 1885.335541 136 116 57
-67.315876 -155.964923 1920.507622 139 130 70
21.352725 370.965838 1498.585320 60 57 40
-55.959171 -86.786085 1871.498871 183 167 105
22.298324 362.943292 1504.020786 167 155 104
-64.707816 -148.773181 1918.623543 155 147 92
-51.809597 -28.301573 1845.093346 75 77 61
-48.290646 4.343580 1824.826050 163 154 93
-57.743394 -127.759624 1912.594414 75 70 39
-62.627184 -191.066098 1953.930473 20 18 16
-50.725412 -19.614701 1855.904007 21 23 21
38.758650 303.960943 1507.447433 57 63 54
-27.888450 488.170195 1593.621540 119 121 124
-57.823342 7.440941 1863.126564 128 120 79
-39.023861 -63.334787 1859.860420 79 80 58
-44.321591 -91.579312 1887.228394 55 49 30
-37.906045 -59.094667 1858.482742 151 153 103
-49.773744 -143.235767 1932.281685 165 152 94
-60.548681 -209.141302 1993.758011 153 143 78
-49.187034 -181.640208 1956.779861 111 106 52
56.707770 682.145929 1333.946228 155 159 133
-47.601414 -97.562224 1919.025803 148 128 75
-47.184733 -112.707627 1928.257561 136 118 61
-46.263376 -171.852410 1952.865601 120 107 47
-36.806217 516.170406 1640.282059 178 176 175
58.223325 680.236435 1336.084080 71 76 68
-32.541457 503.308725 1645.740318 103 107 107
-43.914601 -75.447929 1921.960258 123 114 76
-41.787305 -163.951552 1954.786110 179 164 89
-30.563810 496.375561 1650.368500 170 167 163
-35.139778 519.228125 1663.802147 105 108 72
-25.439870 481.168127 1658.614159 149 142 122
-33.637512 -51.643741 1908.100700 254 248 243
-35.809007 -174.613333 1972.387505 140 126 73
-32.195002 -157.240307 1959.759331 119 106 53
-21.596307 478.255177 1667.559052 95 98 70
-35.465264 528.519249 1682.859993 174 172 172
-31.795597 554.330301 1687.970161 192 183 175
-27.536920 -167.523456 1999.940491 108 95 47
-32.000053 531.250620 1707.857513 124 125 121
-11.275088 758.213186 1590.605545 182 178 178
-11.275088 758.213186 1590.605545 182 178 178
-24.962915 551.738977 1725.768661 54 57 67
-9.827445 774.607325 1586.719799 143 144 146
-9.827445 774.607325 1586.719799 143 144 146
-16.812836 525.962687 1733.709145 157 160 161
13.248618 429.429245 1722.488403 116 119 111
-18.056469 513.483238 1779.532433 255 255 255
-17.824665 771.887684 1656.899643 209 202 202
-15.165128 775.244284 1654.776001 137 139 149
7.651868 446.098900 1749.392891 109 109 105
-15.089317 783.282328 1656.765556 196 192 192
-48.801848 701.674128 1795.363998 126 105 109
-11.592619 502.650595 1791.885376 57 57 58
-1.937515 478.871441 1782.696724 79 77 77
391.558099 336.903000 747.463608 123 116 113
7.530060 461.435747 1778.597069 48 50 52
-0.649739 482.734251 1799.168015 125 122 121
1.480273 605.987883 1767.597771 255 255 255
35.326025 583.526039 1711.993217 255 255 255
1084.557819 234.210968 316.838360 120 111 53
1294.099903 139.498043 71.256447 79 81 83
1628.190994 -111.697304 -222.115946 120 128 148
1318.576241 128.289378 33.591223 79 81 83
1476.089954 34.882706 -148.435771 255 254 255
-345.765567 282.532406 1435.048676 255 255 255
-341.572046 288.879418 1436.484241 172 174 157
-270.614958 649.455786 1272.689438 180 177 160
-272.353768 538.105631 1310.058594 80 76 94
-324.523973 332.081079 1430.304050 116 113 86
-303.281426 520.031786 1353.747177 251 253 251
-308.861327 476.477337 1377.056217 254 255 254
-292.010427 513.130426 1354.580498 174 172 160
-285.778189 464.193678 1364.919567 254 255 254
-288.863111 518.749571 1353.290558 200 195 180
-308.888292 333.634257 1433.013725 83 81 44
-309.116507 451.319790 1396.488953 255 254 254
-265.438080 619.255638 1303.051853 149 150 148
-301.349139 457.905102 1390.231037 150 135 111
-303.070569 337.596488 1431.105137 139 128 90
-310.200167 382.720280 1424.746227 120 112 61
-304.598188 398.790216 1421.510029 150 142 113
-303.867030 413.506317 1416.091728 255 254 252
-300.679803 380.566287 1426.849461 78 73 39
-295.503497 405.681944 1414.393520 167 160 121
-290.331531 328.880739 1436.863327 152 144 120
-336.762953 241.877270 1514.352512 255 255 255
-434.241199 -45.528847 1711.873436 254 254 254
-287.954044 385.253119 1427.777290 48 50 31
-276.106477 280.717349 1450.409889 96 105 83
-285.671759 379.741955 1429.515171 59 60 58
-422.288895 -68.392074 1717.146873 126 108 53
-421.034241 -75.716376 1725.654984 168 154 92
-440.151834 -46.117428 1741.474724 61 49 34
-195.595706 279.558492 1392.465782 96 105 83
-265.122533 336.737561 1446.430779 63 63 36
-406.150913 -86.038953 1744.277191 123 108 48
-406.150913 -86.038953 1744.277191 123 108 48
-406.734896 -80.851912 1761.494255 105 92 38
-234.139729 291.187549 1456.474495 162 167 131
-266.737986 255.212593 1503.824997 129 145 115
-397.633076 -85.375285 1764.384270 151 137 67
-397.633076 -85.375285 1764.384270 151 137 67
-396.701336 -89.335537 1765.999794 157 140 57
-395.502615 -83.589280 1769.679642 97 81 29
-256.933975 253.652596 1510.554314 130 136 103
-391.500711 -90.569180 1775.489998 91 77 34
-259.751344 222.461176 1526.867294 125 123 78
-228.016496 506.314135 1394.472313 204 198 158
-218.076110 529.112482 1384.373569 197 199 194
-217.147446 523.576260 1387.899876 143 145 146
-230.384207 392.103219 1452.518845 79 84 48
-213.446927 520.128298 1390.884018 176 185 183
-214.274693 313.924932 1468.362808 53 52 31
-221.763968 391.984987 1452.064896 91 94 52
-209.681678 502.018166 1400.273418 136 131 138
-379.086852 -141.431963 1819.801140 105 91 47
-219.250751 395.751214 1454.750633 151 153 95
-373.057103 -102.048147 1802.839470 150 128 56
-373.280001 -153.438830 1827.119255 27 21 17
-373.280001 -153.438830 1827.119255 27 21 17
-194.573832 543.581772 1380.821323 151 147 132
-197.051919 536.651230 1387.075996 114 109 112
-371.738577 -168.716764 1838.994980 254 255 254
-334.691238 -252.428436 1829.121208 255 255 255
-344.853997 -46.818820 1767.160797 255 255 255
-193.857074 497.891045 1406.189442 159 171 176
-196.828032 348.373008 1464.296341 160 153 94
-214.851356 240.885544 1526.256371 215 209 189
-356.873679 -158.167887 1840.126801 202 195 126
-192.543626 370.641685 1464.945412 113 110 68
-205.541587 227.143383 1539.143181 196 192 163
-319.659114 -53.322279 1773.367500 22 17 15
-191.743362 256.216955 1514.951324 115 140 83
-384.978127 58.406657 1814.647484 255 255 255
-325.169826 -20.435901 1778.625488 26 21 19
-180.676615 393.034101 1462.881279 121 116 67
-375.891876 56.168383 1816.136360 94 75 40
-160.820794 555.289888 1382.174206 214 204 181
-368.202257 101.826394 1792.965698 169 151 91
-368.202257 101.826394 1792.965698 169 151 91
-358.287287 165.342987 1766.929054 254 254 254
-179.875362 250.156331 1527.868938 183 188 154
-157.570767 533.462048 1395.255280 145 146 149
-334.951067 -233.660579 1899.179077 157 135 65
-173.825800 257.002592 1524.771118 117 135 75
-375.547457 -369.315290 2004.697227 54 45 26
-148.191011 339.670062 1468.232346 72 78 39
-343.172050 166.723132 1765.703392 54 49 32
-357.798719 122.223783 1800.788689 23 17 18
-349.119282 65.939677 1813.001442 161 145 103
-343.116736 105.046749 1793.538475 67 54 42
-159.520781 271.300578 1512.125587 92 94 68
-341.677904 94.046766 1797.343826 77 61 29
-153.064620 443.727684 1444.299889 202 192 158
-153.064620 443.727684 1444.299889 202 192 158
-266.532016 -0.528493 1755.784607 24 19 19
-323.831463 151.446688 1768.078232 128 119 64
-345.954895 -377.264214 1999.108124 26 21 17
-260.072637 6.703923 1752.526093 128 117 79
-144.924343 390.287590 1467.718506 190 188 132
-322.724557 143.275893 1779.837608 255 255 255
-142.826223 266.016960 1523.728752 189 189 135
-316.809320 -395.010090 1995.867348 50 43 29
-221.000910 -124.057221 1774.081612 128 117 69
-253.771138 29.588190 1754.535675 98 89 71
-233.283591 -175.079167 1812.234879 185 174 137
-133.116460 372.505641 1476.364040 111 111 55
-132.960296 379.787469 1475.621223 159 159 102
-123.951328 507.730865 1415.567303 151 153 160
-227.168679 -172.857678 1812.348557 73 67 29
-208.585024 -45.440927 1739.586639 17 15 15
-119.339490 350.454140 1476.769066 133 132 79
-260.788989 109.373617 1747.813034 157 145 127
-291.540909 -340.231633 1979.536057 45 36 23
-92.804211 278.359485 1484.947872 125 130 76
-210.121155 -179.143322 1817.832184 164 153 112
-118.343306 404.088259 1471.016788 168 172 112
-290.946817 -329.401612 1982.211304 139 127 90
-108.973718 490.833139 1426.818085 150 152 157
-125.044322 225.288439 1553.656006 155 151 87
-282.714796 -335.804677 1979.414558 55 46 27
-102.646339 350.331664 1478.498459 135 133 82
-102.646339 350.331664 1478.498459 135 133 82
-238.442397 177.308047 1720.285225 123 102 57
-103.563106 531.675816 1408.885384 196 203 208
-103.563106 531.675816 1408.885384 196 203 208
-233.370996 116.966546 1750.222969 53 45 27
-196.919405 -184.882021 1827.193260 168 163 94
-109.693015 243.574071 1544.548798 61 56 33
-88.617122 341.203523 1479.067039 68 71 39
-93.281287 525.070000 1412.173939 159 155 157
-207.314253 -220.021057 1862.497330 175 161 111
-91.973847 538.380241 1405.885887 164 165 172
-99.269944 373.564148 1482.426834 113 109 54
-210.361624 -243.472433 1877.000809 32 27 18
-96.118969 487.566757 1432.479477 142 139 145
-159.846687 5.063839 1717.980957 24 21 20
-90.485007 510.409069 1421.540070 156 155 159
-200.796056 -217.244411 1862.362480 39 34 28
1111.921978 180.166757 185.673296 194 179 168
-176.585007 -72.592634 1774.627495 185 178 121
-84.497434 351.114655 1482.324409 127 130 75
-87.953639 497.504663 1429.186630 190 200 204
-155.795062 -67.484254 1752.901459 185 178 121
-213.994312 188.306403 1724.552727 145 119 64
-149.604177 16.286209 1711.555290 170 153 112
-83.018553 508.661747 1423.191833 215 209 206
-274.420214 343.315244 1744.643211 151 152 122
-175.294089 -159.791636 1825.751305 84 86 36
-75.845808 546.448994 1404.736805 140 142 152
-68.122959 334.211922 1483.227825 193 189 133
-77.008814 522.032833 1417.185783 140 144 157
-86.158895 400.906229 1481.223011 165 164 91
-170.192349 -157.443929 1826.031685 75 69 33
-234.562993 -369.283009 1999.735260 108 90 49
-128.534210 -17.319478 1720.492744 129 120 89
-130.511069 36.961621 1704.759026 137 124 90
-126.093113 24.281079 1705.074501 174 159 112
-70.515770 482.989740 1439.840126 169 171 173
-166.011596 -159.890628 1838.814545 167 153 87
-168.017077 -173.964274 1847.908401 156 140 87
-215.143228 -320.476913 1976.865768 63 47 27
-129.758286 46.018401 1708.316231 159 140 96
-226.431298 -367.113686 2013.364220 17 13 13
-166.334188 -180.668235 1854.266167 155 140 87
-40.211970 285.307908 1493.870640 57 63 46
-119.280803 -24.552487 1733.275414 45 39 34
-48.648712 341.881704 1482.848549 70 73 37
-126.930010 -59.134889 1761.099052 187 179 131
-238.104057 -57.062584 1914.196205 89 76 42
-66.837621 252.817559 1548.691082 203 199 157
-220.710492 -348.426390 2015.275383 21 17 16
-107.301915 30.472475 1699.457550 177 163 109
547.988939 293.181562 786.177588 155 157 131
-41.136080 650.282288 1349.124908 170 171 174
-170.163035 -245.957375 1910.828018 28 24 18
-108.423138 68.040532 1698.338699 168 148 106
-149.490917 -140.978003 1847.463036 63 61 26
-153.110683 -181.700599 1871.824837 25 22 9
-153.110683 -181.700599 1871.824837 25 22 9
-128.992403 146.622503 1697.943497 29 24 21
-102.467668 71.052271 1696.816254 132 114 71
-112.755477 101.531684 1699.723816 170 152 104
-94.486892 38.122600 1703.142738 94 77 45
-46.056092 371.918130 1491.764164 183 168 95
-52.147144 253.318787 1551.713943 195 197 142
-98.514533 -29.730928 1739.747238 162 148 78
-41.465110 420.649385 1469.936180 215 208 176
-39.076471 434.963179 1460.705090 217 209 178
-147.823548 -151.149726 1868.806267 128 121 63
-144.449282 -181.919014 1878.862190 49 41 15
-142.072082 -196.789801 1885.109329 48 38 29
-140.996778 -169.352210 1873.576736 139 126 72
-136.156499 -166.203773 1874.445343 35 29 19
-130.000329 -127.157009 1850.818062 45 41 23
-135.040188 -140.984309 1864.232063 135 122 59
-87.215900 46.086580 1714.134407 171 152 86
-140.777040 -148.619807 1877.058220 23 22 14
-129.740226 -198.285639 1883.643723 139 125 65
-89.874583 -12.161319 1746.169662 19 14 14
-109.543884 -44.510749 1789.746475 82 74 45
-83.406591 25.160271 1723.248672 82 72 35
-129.021752 -124.036419 1854.383469 190 176 101
-132.870996 -157.869387 1875.986862 85 73 54
-86.792272 166.676915 1668.659019 108 97 40
-82.825798 55.017453 1713.365173 116 96 50
-107.058859 -37.428391 1791.387939 84 70 31
-88.180429 28.302369 1739.903450 123 105 67
-116.623116 -189.325631 1879.557037 112 101 47
-119.081724 -167.438829 1873.927498 194 189 114
-12.277225 351.624846 1489.441586 214 213 209
-123.334014 -136.335552 1867.901993 196 190 117
-87.252492 25.758848 1745.764732 30 25 21
-86.275643 -8.143151 1760.561371 28 23 18
-118.521392 -120.612848 1857.464981 185 171 101
-119.714081 -128.529191 1862.807274 182 169 99
-13.406068 387.537670 1479.298115 179 178 146
-81.676513 -5.139507 1754.364586 28 23 18
-105.991983 -49.895850 1813.866615 141 130 76
-100.174367 -30.772755 1798.001671 150 136 71
-101.438856 -101.700759 1837.624931 142 134 90
-112.965846 -226.841879 1913.043213 136 117 60
-6.085624 386.473107 1481.404495 153 153 88
22.549684 609.507132 1339.878273 167 163 162
1.791457 359.962940 1483.195972 162 159 132
-57.907480 184.186876 1651.206017 95 81 50
32.611278 652.695799 1309.962273 151 145 117
35.340592 651.430464 1307.800770 151 145 117
-20.608260 247.889304 1580.065536 87 90 52
-20.608260 247.889304 1580.065536 87 90 52
-0.170369 407.253790 1478.573418 180 175 160
10.022803 528.767729 1408.765507 91 96 91
10.022803 528.767729 1408.765507 91 96 91
-19.257753 246.903944 1583.639431 167 174 121
7.227046 551.792812 1406.119919 185 182 181
0.109324 429.134512 1473.667336 119 114 95
13.605647 350.062060 1490.151978 177 164 113
-116.144788 47.824121 1826.821899 60 59 42
-14.838770 256.593275 1581.747341 170 176 127
14.633609 363.622999 1488.229275 177 165 123
15.568176 528.067541 1411.475182 67 71 58
-110.850787 36.312804 1829.442978 69 57 33
-106.365705 -211.714768 1939.209747 118 107 50
3.794945 454.621601 1465.353584 171 167 156
-117.300081 63.575351 1829.216194 75 60 33
-117.300081 63.575351 1829.216194 75 60 33
0.415943 424.723005 1485.724258 34 37 40
-20.351535 232.917380 1607.238007 167 152 81
4.834851 462.549305 1463.852596 148 146 117
1.132544 421.123743 1488.931847 170 169 167
10.502949 540.481472 1419.436264 112 113 110
2.179100 452.152681 1475.276852 188 184 174
-107.316184 44.012237 1830.605125 14 13 12
15.336931 537.405300 1415.876293 89 92 87
0.574163 435.908699 1485.783958 50 52 60
1.436654 445.676422 1481.746292 158 161 163
-86.351478 -117.647386 1881.125259 142 124 72
12.590969 502.132940 1441.555405 121 120 117
42.895585 673.003054 1315.757084 84 85 66
16.581827 541.291142 1418.083382 167 166 166
25.331309 343.162012 1497.592735 84 83 74
-85.087454 -110.076916 1879.439545 52 43 26
8.570766 400.977468 1497.972393 34 39 49
37.520427 297.423267 1503.948784 185 186 140
9.207065 403.629160 1501.870918 115 118 127
-80.431640 -102.101064 1877.588081 82 70 39
43.379736 280.450487 1509.126377 171 170 166
-101.541662 -214.522386 1964.981270 110 102 54
40.388364 292.832637 1509.368515 179 183 150
-78.462934 -111.666524 1884.829140 170 151 87
21.788134 373.849773 1502.631474 186 184 174
-110.348189 126.628923 1824.889183 31 23 13
43.459386 289.352679 1512.844944 76 80 76
43.459386 289.352679 1512.844944 76 80 76
-107.571650 131.097400 1825.410461 124 102 57
21.848857 358.715510 1516.827679 167 151 95
-82.987064 -142.369175 1918.644714 137 114 54
23.490106 379.364753 1505.258942 190 185 177
17.589895 365.736771 1521.801472 25 25 22
-64.830559 -39.272869 1844.953918 160 130 75
-62.861657 -85.227710 1867.102242 38 31 14
-73.758173 -135.228848 1911.175919 166 147 89
-83.531064 -203.695083 1963.176537 137 129 64
-63.096708 -109.624517 1887.864685 133 114 58
-61.839575 -7.386530 1838.332176 141 129 88
39.052626 302.289891 1532.906246 95 101 92
-57.706648 -21.464355 1842.116356 69 75 67
-65.926152 28.428787 1831.734276 17 13 14
-70.212930 -126.408398 1913.985443 68 57 25
55.237633 668.935919 1333.230686 134 135 123
-48.809358 -53.726983 1851.689339 172 157 94
54.372036 683.933592 1334.644032 77 73 41
-114.339137 125.411904 1874.757385 105 106 80
-49.989724 -82.607967 1874.499512 58 53 40
-49.989724 -82.607967 1874.499512 58 53 40
55.825108 669.033480 1341.354847 134 138 134
-57.167208 -103.975272 1899.529648 39 32 22
-60.630876 -129.003501 1917.803955 86 78 43
35.461903 313.764405 1549.327755 84 90 81
-16.823938 428.024244 1577.535248 122 124 126
-16.823938 428.024244 1577.535248 122 124 126
-21.673077 443.434620 1579.675770 184 178 175
-21.673077 443.434620 1579.675770 184 178 175
-50.122201 -14.839321 1852.454567 111 116 87
-58.936203 -117.419720 1919.258690 134 117 67
57.698876 677.445745 1342.370319 108 112 106
-57.876337 -112.078393 1917.339897 37 30 14
-17.526606 433.557081 1584.855938 127 128 130
-17.526606 433.557081 1584.855938 127 128 130
-24.393727 458.619261 1583.644009 123 124 127
-47.136322 -58.362859 1876.538277 176 168 97
-67.199051 -5.494404 1893.054581 25 23 20
-58.722866 -187.166166 1961.325645 149 138 97
-25.763839 464.548397 1590.298080 120 118 120
-52.463567 -144.435751 1937.225723 158 147 90
40.829000 313.613081 1559.431362 109 117 103
-66.432631 -32.053494 1908.694077 25 23 20
-23.024061 444.153690 1603.235245 127 124 107
-23.024061 444.153690 1603.235245 127 124 107
-29.196462 478.223658 1610.568810 118 120 117
-28.671777 468.774843 1616.658401 179 174 166
-23.166472 664.786053 1510.927963 139 131 132
-30.376533 485.442019 1614.249039 158 158 153
27.800706 343.013835 1591.249752 79 87 77
-6.246993 427.182627 1608.489799 152 150 144
-6.246993 427.182627 1608.489799 152 150 144
-40.169647 -180.443645 1977.665329 139 125 65
-32.213834 488.704014 1625.741196 117 122 122
-38.562754 -145.138609 1958.664131 105 92 43
-42.847124 -85.370123 1940.001106 46 37 30
-37.176490 -183.202589 1983.131027 186 179 111
-38.914588 -184.591055 1998.230934 194 184 122
-35.359371 498.863363 1642.058182 105 111 113
30.158129 349.684429 1611.319160 97 106 81
19.168305 371.113062 1625.415039 132 131 89
24.219964 363.274550 1624.620819 50 60 44
24.219964 363.274550 1624.620819 50 60 44
-34.424675 -181.521356 2007.806778 118 104 54
-4.044439 415.538597 1646.849060 147 141 110
-41.514486 518.871689 1657.162666 177 174 168
-39.556095 513.292933 1657.882309 161 162 159
-44.929126 -126.633775 2000.532913 107 92 50
-32.009044 -168.283641 2001.137543 101 85 38
-3.802018 417.478991 1653.353882 55 54 15
-6.033050 422.793150 1654.860687 156 149 118
-18.715878 459.056807 1658.925438 148 145 138
-37.239233 513.933182 1662.549591 100 101 59
-32.681572 491.902971 1671.882248 117 117 74
-42.690083 529.506302 1679.086113 161 161 123
-10.033288 456.925011 1664.979553 87 92 65
-9.780046 432.952023 1678.126717 53 48 24
-6.298723 456.540966 1660.507774 87 92 65
-36.972806 503.716183 1690.637016 117 112 65
-35.978094 505.772161 1697.238541 159 154 142
-33.622545 504.075432 1711.573410 80 78 53
-34.198558 536.338663 1698.588753 156 155 153
-37.715423 556.638432 1697.389221 192 183 174
-35.331026 523.592901 1729.850006 139 141 140
-30.724016 531.129217 1730.350685 55 58 66
-30.724016 531.129217 1730.350685 55 58 66
-6.109194 462.463903 1724.367332 74 72 42
-38.811439 580.131435 1720.286942 40 43 45
-41.638988 654.860592 1693.095207 141 139 144
4.755821 436.968184 1729.539490 49 49 45
-26.389006 545.255327 1730.468178 38 40 50
-25.685856 518.609381 1748.043633 31 30 31
-36.327985 572.130299 1739.968681 255 255 255
-32.589468 571.486712 1735.217857 255 255 255
-19.008446 762.890339 1602.514839 179 176 177
-29.466188 526.549911 1769.785881 139 139 133
-30.606812 506.325102 1788.432312 70 63 48
-2.719386 467.275763 1772.564316 76 77 76
3.331235 456.951237 1767.949867 117 118 110
-84.265423 681.736422 1810.077095 255 255 255
-162.860405 833.629131 1903.759575 202 201 205
511.274672 280.566287 940.480900 120 111 53
-15.151671 495.280552 1819.450378 99 100 102
-13.506979 499.543476 1824.627304 246 243 233
-12.463438 503.911209 1821.532249 253 255 254
-8.498355 496.600008 1834.253693 253 254 253
1055.786896 305.793548 533.629227 70 72 41
-5388.305283 1470.217705 4008.374405 41 41 55
-5510.969543 1363.520813 4133.850479 143 125 124
-5527.591324 1343.948269 4151.293945 40 34 37
-5524.409103 1329.622459 4164.929962 89 86 112
1161.787891 255.936909 445.765495 89 89 93
-399.778533 550.986767 1351.688671 90 87 105
-659.052801 560.219431 1544.340420 255 255 255
-425.738859 532.525969 1413.238621 255 255 255
-325.017095 291.920424 1430.318451 186 188 167
-266.029096 631.733847 1278.346062 190 189 188
-303.633142 500.109863 1357.031441 254 254 254
-205.558300 506.418467 1288.901329 255 255 255
-324.843812 306.199861 1441.593170 99 97 74
-295.281911 499.143982 1356.572533 106 105 91
-301.880789 484.139347 1366.576004 255 255 255
-296.152496 519.382095 1352.799797 135 130 86
-296.265411 466.243982 1376.545238 255 255 255
-294.996524 473.493862 1374.652386 137 128 103
-293.539691 476.635838 1372.638035 116 112 84
-298.601437 464.019251 1383.470058 162 156 121
-282.883048 513.844490 1356.347847 112 117 76
-295.877862 364.532399 1418.761730 158 151 112
-306.943941 399.974108 1415.340519 253 255 254
-295.572853 341.079593 1428.730202 117 108 51
-301.720715 433.847189 1402.678680 254 254 255
-275.519276 273.924971 1442.919540 146 147 97
-303.916836 410.290051 1416.934681 85 86 45
-287.748361 361.073136 1423.527718 191 181 150
-290.884519 432.440662 1402.954865 119 117 95
-285.962009 328.571773 1437.825966 168 166 125
-296.723938 388.329554 1424.606705 114 109 46
-286.021709 440.324736 1400.001335 148 139 123
-289.618039 401.030684 1418.807983 192 188 151
-286.686397 380.293584 1424.235916 189 182 146
-285.999489 395.914125 1419.772053 191 189 152
-268.987656 341.010737 1435.814381 135 135 102
-425.908947 -44.268793 1712.427521 88 68 38
-285.338879 251.119184 1501.232147 254 254 254
-425.555277 -38.508350 1713.080597 84 68 38
-425.555277 -38.508350 1713.080597 84 68 38
-434.622526 -35.023612 1719.310951 244 242 241
-410.859728 -69.759059 1720.032692 178 165 89
-284.659624 228.959632 1517.411232 117 144 148
-284.659624 228.959632 1517.411232 117 144 148
-287.816119 222.731948 1523.661327 255 254 255
-428.382969 -45.389521 1729.813766 52 40 21
-406.967306 -63.192606 1721.084213 86 77 37
-405.455351 -74.642217 1727.392578 129 111 48
-279.998851 221.021509 1525.271988 136 137 126
-279.998851 221.021509 1525.271988 136 137 126
-429.663801 -46.048737 1739.024925 251 253 253
-409.176683 -93.311864 1743.449402 191 182 122
-411.842918 -90.388578 1747.192764 180 167 92
-416.889954 -33.100483 1737.925911 218 219 227
-229.113412 337.500739 1456.609154 75 76 44
-408.504868 -61.644882 1749.800301 251 252 253
-408.504868 -61.644882 1749.800301 251 252 253
-424.422932 -124.150050 1788.209343 254 254 255
-188.395071 263.766885 1461.550999 168 172 140
-414.367056 -125.180793 1790.689468 108 97 38
-396.474195 -85.027933 1763.336754 153 140 58
-182.769239 268.520355 1464.003658 94 91 66
-206.839514 518.098259 1390.133381 113 114 120
-202.112603 521.038389 1389.366436 160 180 189
-388.572288 -89.728934 1772.821999 87 77 23
-409.490538 -143.823135 1812.802887 254 255 255
-400.249767 -140.147686 1804.710197 254 255 255
-210.364461 382.262778 1453.504753 160 155 108
-208.503437 382.272744 1452.187252 160 155 108
-196.583331 519.010305 1392.287540 111 111 115
-196.583331 519.010305 1392.287540 111 111 115
-207.865167 367.282724 1460.482883 161 155 101
-187.403977 330.574179 1459.133625 159 156 118
-385.681176 -134.560966 1806.248856 138 126 68
-193.182242 492.187881 1407.450962 160 157 151
-211.350346 251.357722 1518.233109 198 198 169
-205.932975 257.126737 1514.945221 131 150 96
-394.788551 -76.577616 1802.058411 86 79 60
-377.268553 -146.765614 1815.172195 254 254 254
-217.140555 222.649360 1540.043163 143 139 89
-208.064437 230.034566 1529.737854 196 194 183
-183.712614 392.608500 1452.287769 105 100 60
-373.113084 -153.291547 1826.898193 26 23 16
-356.815553 -147.235930 1812.458611 26 23 16
-173.670495 357.515764 1464.758778 97 96 58
1831.047630 241.625261 -155.669653 120 122 123
-183.508372 371.140933 1467.705250 128 122 65
-197.578812 222.797632 1538.181400 149 146 94
-356.080365 -0.956726 1759.229851 255 255 255
-192.993712 227.940369 1533.797646 199 195 177
-365.984583 -110.384643 1813.297462 126 105 46
-361.718011 -154.271090 1831.313515 189 189 106
-361.491251 -176.404834 1840.177155 255 254 255
-186.041832 228.115034 1535.043812 188 188 147
-166.499233 366.022968 1466.135311 181 172 112
-286.416960 -57.782835 1741.718864 197 187 131
-277.849889 -55.447823 1734.419250 197 187 131
-163.397312 383.479214 1465.150833 183 177 116
-163.397312 383.479214 1465.150833 183 177 116
-168.765700 257.425904 1520.288849 126 144 83
-347.105479 -163.931143 1847.050476 201 194 116
-118.576312 278.445458 1475.121593 112 113 89
-145.571887 349.977684 1474.349594 149 144 87
-145.571887 349.977684 1474.349594 149 144 87
-279.768682 -82.541096 1764.527321 143 128 82
-306.816101 -117.712486 1802.660179 49 41 22
-342.317891 -180.207133 1864.450264 144 129 55
-151.736414 249.208212 1530.975342 190 192 161
-142.812371 390.247321 1465.890026 199 197 140
-289.362788 7.121530 1754.639626 39 31 25
-128.919590 511.926556 1411.769104 138 142 150
-128.919590 511.926556 1411.769104 138 142 150
-326.795292 -230.607438 1890.763283 154 135 74
-286.619043 -164.864445 1829.133797 121 109 54
-127.209759 505.235910 1415.191555 134 140 148
-378.581977 -365.118527 1997.479820 254 255 254
-220.582914 -63.617909 1734.713364 185 174 122
-98.096842 283.751273 1483.923721 60 64 49
-278.300762 14.074127 1754.278946 142 124 85
-280.084777 21.143030 1752.985573 120 112 86
-122.664833 507.132864 1414.688206 151 154 161
-365.965009 98.294848 1797.992706 85 71 49
-122.164536 350.710297 1479.166126 133 132 84
-306.788254 -235.784698 1884.310341 255 255 253
-279.356718 33.888218 1755.520058 163 151 121
-127.811980 257.284307 1528.870773 110 126 75
-127.811980 257.284307 1528.870773 110 126 75
-354.591942 156.111884 1773.214722 255 255 255
-257.716584 7.450265 1750.098801 125 111 75
-114.062572 512.080193 1414.188194 203 201 201
-113.453078 509.259796 1415.599251 207 203 202
-225.753808 -58.139348 1753.087044 15 13 12
-266.134429 30.004093 1753.157043 152 141 109
-197.739899 -66.744685 1732.420349 194 185 114
-209.786606 -114.436221 1763.509560 197 186 140
-341.174102 155.095816 1769.369888 254 253 247
1090.838718 353.914380 460.394144 34 27 24
-251.771259 18.910481 1754.348564 20 17 16
-105.193543 368.124509 1477.607059 141 140 98
-104.169238 366.213298 1477.493477 139 140 97
-281.961823 -261.482573 1901.800346 255 255 255
-273.097301 -257.068968 1892.777252 255 255 255
-325.505352 170.313323 1764.534569 19 16 11
-186.798394 -72.995335 1742.620659 141 128 79
-111.072254 250.626206 1538.432693 200 193 165
-246.281815 34.330136 1753.232956 44 37 30
-97.518247 526.402187 1411.038399 201 207 213
-97.518247 526.402187 1411.038399 201 207 213
-103.011417 370.888090 1481.702232 159 159 97
-300.834274 146.547043 1758.371353 255 255 255
-97.206104 502.356768 1423.542404 163 164 169
-97.206104 502.356768 1423.542404 163 164 169
-72.215044 291.069579 1490.034962 152 157 115
-259.377456 -256.784081 1893.180275 80 68 19
-306.312370 -384.142113 1990.076447 155 144 120
-92.856938 524.825573 1411.892700 168 165 166
-100.665426 373.762012 1483.625221 117 117 66
-251.699710 -238.359833 1882.324791 194 185 148
-298.783064 -403.648567 1997.547722 166 151 65
-81.528717 351.193476 1479.547596 126 129 80
-83.908463 561.968231 1393.315315 139 142 151
-197.132993 -161.860085 1809.807587 72 62 25
-63.644022 456.808472 1423.160553 216 206 162
-254.184365 119.712341 1744.735718 178 160 125
-243.795490 89.454591 1748.287201 45 40 28
-88.812733 367.069364 1486.829185 146 149 93
-160.674965 -4.829424 1713.910866 178 162 120
-173.264599 14.860770 1718.049240 20 15 17
-210.243511 -205.757999 1848.136139 118 113 54
-272.423959 -390.512037 1986.526871 193 181 102
-242.164278 104.441679 1749.460602 59 51 33
-85.461706 437.081957 1460.962009 148 144 137
-184.254265 -146.384752 1806.330490 179 168 101
-75.586039 530.467892 1414.300156 119 120 138
-77.126092 371.280742 1485.336018 182 182 122
-77.126092 371.280742 1485.336018 182 182 122
-233.404851 183.183002 1713.819885 168 148 102
-232.851076 92.880028 1752.314186 87 78 46
-238.703370 187.441206 1718.238258 139 123 72
-137.947905 -27.890190 1717.016411 22 18 10
-146.307755 -0.730468 1715.078163 51 44 41
-79.197955 397.863936 1481.163216 111 110 48
-138.565433 -11.958780 1714.899635 21 18 18
-70.128244 505.935907 1426.900291 144 146 155
-186.386073 -219.353318 1852.995872 170 164 101
-1569.040394 791.945887 2727.289391 99 102 95
-174.407065 -158.856905 1817.931557 72 76 32
-160.409546 34.716856 1720.922089 90 85 58
-143.058789 -49.151444 1744.504166 98 88 45
-184.770274 -168.016958 1836.308098 152 146 87
-224.091125 143.201649 1739.326668 71 54 22
-45.710355 329.420328 1489.584351 169 164 93
-203.706765 -259.460974 1897.701645 37 34 16
-126.811099 -16.507109 1718.478203 132 121 87
-168.906808 -156.864440 1824.542809 71 70 28
-225.598931 -411.134291 1992.022133 188 175 103
-160.050082 231.429696 1647.827530 194 196 157
-115.014219 -40.883642 1726.886368 69 55 24
-42.218134 319.292760 1499.165058 51 50 27
-234.101486 -348.923206 1980.228424 169 149 95
-234.101486 -348.923206 1980.228424 169 149 95
-234.327865 -296.729612 1958.356285 178 163 114
-226.206493 -314.749312 1959.248352 180 165 107
-129.580855 -58.188629 1754.703331 177 170 121
-231.550670 -357.633543 1986.842346 160 143 92
-231.550670 -357.633543 1986.842346 160 143 92
-12.126321 280.723357 1493.534088 133 137 89
-215.520835 -283.378291 1941.355133 63 52 23
-165.767658 -159.809422 1838.540840 163 148 85
-220.332408 -326.521778 1967.665672 159 135 80
-29.818183 343.847466 1486.439037 41 40 26
-123.874164 65.225536 1703.012276 157 143 104
-164.491439 -179.784393 1852.069473 156 144 73
-235.546994 -308.406687 1980.739403 24 19 17
-121.005988 70.463198 1702.826118 158 148 115
-161.069000 -204.260111 1864.501953 182 167 87
-40.323719 376.352859 1490.376282 185 177 109
-221.556735 -335.510206 1987.117577 50 44 23
-157.105458 -137.464273 1835.335922 74 67 42
-214.570355 -320.500255 1976.336670 71 51 28
-112.723076 -47.026628 1756.362152 189 180 112
-112.723076 -47.026628 1756.362152 189 180 112
-10.656433 342.892241 1482.759666 74 78 51
-15.495081 360.993814 1479.409313 68 69 42
-155.888045 -153.445530 1849.547386 65 55 26
-155.888045 -153.445530 1849.547386 65 55 26
-102.058065 71.353507 1696.272850 132 112 70
-180.523014 -257.688236 1922.564125 168 168 97
-217.709374 -321.634865 1989.675140 147 122 70
25.499272 642.783976 1315.143013 204 199 186
-99.395782 62.361103 1701.476479 190 170 122
26.983657 655.960894 1308.368874 129 127 114
26.983657 655.960894 1308.368874 129 127 114
-149.176002 -133.970320 1841.178322 156 146 82
-97.162694 -17.416851 1738.154221 67 58 43
-6.937470 371.138215 1473.670006 123 124 110
9.325758 279.529166 1498.919296 129 133 117
-166.291487 -220.125747 1901.207924 171 150 80
-10.175075 351.814651 1487.257481 208 205 199
-13.386588 324.506021 1503.350449 170 163 92
-118.932819 -58.575797 1782.409859 172 167 91
-94.025791 -26.211691 1744.235039 176 161 89
-8.976305 349.424529 1488.976288 25 22 13
-10.551643 494.588089 1426.663399 160 159 155
-226.743770 -318.775678 2012.841797 90 77 45
-168.171346 -234.583259 1917.287064 48 46 26
-12.188746 387.368155 1478.157902 181 178 147
-85.002625 45.738146 1706.739616 168 142 79
-85.002625 45.738146 1706.739616 168 142 79
9.456752 286.411667 1504.217529 47 52 50
-89.068592 -15.770732 1742.609024 132 117 67
-142.931831 -118.152440 1843.994713 129 117 69
-144.982302 -178.547204 1873.611450 43 36 18
-193.061113 -397.016311 2023.156166 124 110 40
-213.928390 -300.069332 2000.666618 19 15 14
-0.256866 531.718493 1406.128788 192 190 188
-156.034482 -236.147928 1914.511871 70 57 19
-141.739583 -180.774856 1875.595856 58 50 22
-95.583630 165.839386 1670.723724 156 144 93
-90.570301 -1.279777 1743.466187 43 32 29
-139.534950 -211.620712 1891.740990 43 38 21
-139.534950 -211.620712 1891.740990 43 38 21
-85.825616 -14.352486 1747.390556 139 127 78
-105.985701 -39.348719 1780.925560 171 158 98
-86.580211 21.878019 1733.194542 140 119 71
7.228431 514.322186 1413.237286 162 161 149
-101.253676 -33.705559 1777.516937 167 152 88
-4.914795 455.170679 1454.556942 215 209 205
-85.955757 153.487217 1676.676941 147 127 55
-84.802997 153.636456 1675.582886 147 127 55
-85.230947 49.970406 1723.744583 164 142 86
-131.720424 -93.629074 1838.052750 147 140 92
8.013722 531.652498 1407.359695 115 117 108
-0.597287 476.534462 1441.769505 211 207 206
38.200012 667.723942 1314.491940 158 160 140
-1.602671 447.737312 1458.056355 207 203 199
11.251668 528.283024 1407.731533 97 101 98
-81.746197 158.540905 1674.048805 186 170 108
-115.690184 101.896703 1735.023308 164 136 72
-80.981970 168.050313 1669.306946 194 175 113
-104.793477 -43.196186 1792.005157 161 148 94
-129.651439 -123.988080 1854.987526 190 179 105
-1.695647 427.500963 1469.328785 193 192 186
-0.026080 445.535326 1459.599972 204 201 194
12.996976 352.282095 1490.045261 185 173 120
11.738908 540.651560 1404.462528 191 190 187
-137.457669 -246.938777 1922.307014 107 87 46
-137.457669 -246.938777 1922.307014 107 87 46
-70.261788 137.854397 1676.345253 193 176 117
-128.881729 -86.906809 1840.885162 50 43 30
-96.151763 -28.963947 1781.151009 88 77 36
-210.266542 -385.800362 2064.620018 132 115 52
7.728807 543.211174 1409.792042 178 175 177
-102.155268 -37.757441 1795.093346 171 157 89
-166.052842 -282.276464 1975.178719 19 15 11
-119.029391 -167.552531 1873.953819 190 184 117
0.021234 429.137135 1473.759747 117 113 90
13.227865 531.117630 1412.685490 192 189 180
-145.376635 -266.103101 1948.213768 182 176 123
-20.423594 248.162794 1579.720592 70 72 41
0.404680 443.254089 1467.448521 148 139 129
5.611029 462.409687 1453.882694 118 116 102
-83.757299 -0.828179 1762.123108 100 88 52
9.530126 558.821011 1405.704117 85 88 81
11.671661 545.303965 1410.475159 169 165 165
-112.438858 -179.025853 1877.881050 198 186 121
-111.029434 -95.473588 1837.976265 16 13 12
-119.216108 -120.822573 1858.275795 179 168 104
16.101417 528.193188 1415.955544 156 154 156
-111.397052 -191.539347 1885.460854 192 179 115
-104.940522 -42.965317 1810.287094 14 12 12
-156.138694 -267.175412 1968.514633 152 137 73
-78.518301 -0.981838 1763.455963 68 61 32
-89.536512 27.434567 1762.230492 19 16 14
-154.180574 -273.617864 1971.614265 77 72 25
13.434009 539.929724 1416.228962 99 102 95
-96.182632 -99.437165 1831.055641 149 143 98
-66.192669 170.589447 1673.389816 104 84 33
-66.192669 170.589447 1673.389816 104 84 33
-106.349802 -168.785751 1874.520493 42 41 28
-106.349802 -168.785751 1874.520493 42 41 28
14.711873 500.306845 1434.491825 177 176 166
13.067490 507.506371 1433.114815 176 177 175
-41.415679 204.599094 1632.715225 181 169 100
19.090313 371.022248 1492.335415 96 88 71
19.090313 371.022248 1492.335415 96 88 71
-80.085933 7.312327 1768.273735 107 93 54
-98.390311 -11.543921 1797.466087 33 30 19
36.839086 308.419728 1505.398273 50 50 44
-107.143271 -225.185633 1907.688522 133 113 54
1.891844 407.718039 1495.639801 113 116 125
0.762162 439.018154 1482.464981 177 177 176
15.034880 541.550159 1419.591141 167 165 163
49.496368 274.039149 1509.862423 75 78 77
-125.799382 -103.084910 1871.658707 18 17 14
1.370302 488.241911 1460.589600 117 117 109
1.955203 432.700491 1486.175442 182 179 179
-108.899760 -192.439353 1897.791862 176 162 81
-86.074400 19.091196 1774.229431 14 12 12
-32.692617 203.152061 1631.329155 176 159 100
-106.255567 -47.896045 1827.297211 119 106 61
-101.102448 -20.028006 1808.760262 35 30 23
-100.828075 67.413169 1767.335892 15 11 11
-106.449592 -129.093242 1866.312981 168 155 97
7.019474 396.643758 1499.162674 57 61 70
-95.425451 -6.334394 1797.314262 146 132 75
-97.360158 36.381185 1779.262924 60 56 47
-124.661279 -249.357486 1944.747162 116 97 55
46.669027 289.512658 1509.392071 94 96 94
-101.670420 49.774167 1779.475403 65 64 49
-98.715198 -24.398081 1813.257980 11 9 9
40.657625 304.325128 1510.780525 157 158 128
-119.513392 -80.099690 1862.197685 15 13 11
-85.363966 16.920805 1780.308914 122 107 59
49.495816 673.659039 1326.877499 61 65 58
-21.694686 228.174520 1613.181496 72 78 36
-88.351732 21.693401 1781.715393 122 110 66
-88.351732 21.693401 1781.715393 122 110 66
-98.584014 -6.027373 1807.735634 34 29 21
-30.676126 203.154159 1637.313080 189 177 113
-20.000482 230.735493 1613.119125 46 49 32
18.348968 356.097865 1513.138294 77 74 40
-104.122519 -78.707862 1851.723480 127 125 67
