ply
		format ascii 1.0
		element vertex 1370
		property float x
		property float y
		property float z
		property uchar blue
		property uchar green
		property uchar red
		end_header
-3.886101 5.088453 15.265309 122 92 88
-2.219492 0.923037 6.809560 106 81 93
-2.202344 0.747186 6.759581 84 72 95
-3.955190 5.298639 15.710172 118 87 82
-3.955190 5.298639 15.710172 118 87 82
-2.220619 1.027166 6.867082 109 87 89
-2.090010 -1.208318 6.278325 112 91 114
-2.205935 0.839003 6.809215 113 95 107
-2.205935 0.839003 6.809215 113 95 107
-2.104857 -0.713272 6.424755 106 94 112
-2.199895 0.867559 6.857927 80 66 83
-3.951200 5.390379 15.955362 112 84 79
-2.194939 0.822162 6.845790 100 81 94
-2.188196 0.786315 6.843429 92 73 89
-2.147327 0.238036 6.674226 103 84 101
-2.147327 0.238036 6.674226 103 84 101
-2.093487 -0.754489 6.428196 104 90 113
-2.084004 -0.956831 6.397929 103 87 116
-2.187330 0.848692 6.897097 99 87 106
-2.169108 0.691771 6.820846 129 107 112
-2.144462 0.366397 6.775489 103 84 97
-2.178211 0.866746 6.937471 90 76 100
-2.180209 0.934116 6.954345 96 80 105
-2.094307 -0.464211 6.555372 122 100 120
-2.054741 -1.368401 6.364331 97 80 113
-2.054741 -1.368401 6.364331 97 80 113
-2.104890 -0.306618 6.618327 128 106 130
-2.104890 -0.306618 6.618327 128 106 130
-2.048395 -1.530136 6.343940 118 102 126
-2.074411 -0.730482 6.471600 83 73 101
-2.171177 0.880166 6.949940 88 77 108
-2.160054 0.698576 6.919329 99 75 89
-2.071265 -0.777697 6.537536 100 85 115
-2.039273 -1.557003 6.380165 110 95 125
-2.039273 -1.557003 6.380165 110 95 125
-2.076987 -0.472070 6.609455 115 94 114
-2.345201 1.406293 8.117223 67 59 105
-2.049907 -0.880896 6.569253 69 58 85
-2.092903 -0.010098 6.782934 108 85 103
-2.132991 0.707952 6.981657 115 94 108
-3.366921 3.543272 13.938039 87 68 116
-2.288389 1.118398 7.871191 64 58 79
-2.092718 0.005866 6.811469 97 78 100
-2.020603 -1.588027 6.463330 118 103 134
-2.020603 -1.588027 6.463330 118 103 134
-2.074040 -0.320270 6.740674 130 103 127
-2.293980 1.243848 7.951463 61 51 79
-2.017785 -1.573424 6.478688 119 104 129
-2.015025 -1.407873 6.463304 108 89 117
-2.131695 0.872417 7.081397 52 48 59
-2.082378 0.151185 6.882758 111 92 107
-2.120994 0.850609 7.091170 48 42 54
-2.088090 0.234174 6.963509 97 78 97
-2.263023 1.207561 8.061840 57 55 75
-2.084519 0.460236 7.045575 81 63 78
-1.996429 -1.450906 6.606325 118 97 123
-1.996429 -1.450906 6.606325 118 97 123
-2.090632 0.590471 7.107897 105 91 115
-2.258004 1.250161 8.122478 76 67 106
-2.032405 -0.341833 6.870387 107 90 119
-2.032405 -0.341833 6.870387 107 90 119
-2.234300 1.159907 8.095950 72 66 100
-2.051053 0.154955 7.036907 39 31 46
-1.966024 -1.926405 6.602720 121 100 119
-2.026561 -0.197335 6.952354 114 93 115
-2.174188 0.986920 7.922443 47 41 46
-2.033046 0.154785 7.081710 45 38 56
-1.964607 -1.501658 6.721869 110 95 126
-1.970886 -1.238144 6.776153 97 87 114
-2.020863 -0.035311 7.051112 80 70 121
-1.968973 -1.236497 6.769557 96 84 112
-1.974889 -1.030832 6.827367 118 99 116
-2.047989 0.599672 7.258515 88 75 97
-2.164400 1.040599 7.999464 56 50 62
-1.960672 -1.268871 6.796965 105 89 119
-1.964293 -1.109042 6.834184 90 76 103
-2.209665 1.215007 8.331205 83 73 111
-1.998548 -0.213403 7.071586 109 85 101
-2.047101 0.534095 7.358171 83 65 83
-1.994140 -0.195663 7.071055 112 94 115
-1.932957 -1.844626 6.775554 108 86 111
-1.985535 -0.044917 7.177343 46 38 85
-2.095938 0.193087 7.924376 55 49 90
-2.096775 0.231987 7.934893 83 69 90
-2.090760 0.166672 7.909514 44 37 70
-1.917047 -1.862989 6.817051 118 96 123
-2.192500 1.244527 8.613874 86 75 116
-3.374844 4.534957 16.560314 109 89 132
-1.971733 -0.046125 7.226641 88 79 133
-1.926823 -1.156049 6.985159 117 102 126
-1.912852 -1.573768 6.919113 113 100 129
-1.901818 -1.864965 6.881685 106 85 110
-1.921474 -0.958065 7.022270 117 100 126
-1.898039 -1.890879 6.906376 124 103 127
-1.965814 -0.028308 7.327596 78 67 122
-1.930213 -0.769582 7.115548 103 88 114
-1.905876 -1.461094 6.968036 104 89 112
-1.905876 -1.461094 6.968036 104 89 112
-1.906930 -1.322666 6.988551 116 96 115
-2.057471 0.156696 7.991162 33 27 49
-1.945815 -0.234474 7.248203 106 92 116
-1.945815 -0.234474 7.248203 106 92 116
-2.146675 1.230120 8.619679 86 78 110
-2.153412 1.417153 8.663879 81 66 108
-1.948127 -0.045914 7.334102 90 76 130
-1.948127 -0.045914 7.334102 90 76 130
-2.104262 1.094251 8.401446 80 70 107
-2.134203 1.385791 8.724875 95 75 115
-2.118927 1.177878 8.664110 91 75 121
-2.081581 1.061520 8.469870 81 68 107
-2.126094 1.392197 8.806395 102 82 123
-2.122319 1.378153 8.815920 121 101 143
-1.871287 -1.358515 7.116720 119 101 124
-1.878091 -1.151756 7.176508 114 98 128
-1.886526 -0.731249 7.287615 96 80 104
-1.848662 -2.135899 7.033678 114 93 115
-1.998133 0.341786 8.087583 61 53 100
-2.018945 0.885320 8.295490 87 73 128
-2.103381 1.414987 8.902109 94 77 119
-1.841871 -2.127295 7.071921 116 92 99
-2.077060 1.193805 8.787296 74 65 99
-2.077060 1.193805 8.787296 74 65 99
-2.076408 1.247041 8.908607 68 60 86
-1.837274 -1.405181 7.257346 108 92 120
-1.837274 -1.405181 7.257346 108 92 120
-1.861161 -0.430300 7.469300 102 89 117
-2.114553 1.695016 9.371793 67 60 111
-1.845426 -0.795309 7.400523 103 87 104
-1.845426 -0.795309 7.400523 103 87 104
-1.995438 1.108116 8.508359 82 72 118
-2.061472 1.409755 9.053102 110 90 135
-1.804799 -1.717796 7.252473 114 94 114
-1.800012 -1.965706 7.245111 96 80 111
-1.849108 -0.263259 7.598354 120 105 129
-1.834496 -0.624575 7.505400 108 88 106
-3.627658 6.880842 21.863237 95 76 120
-1.835110 -0.444491 7.563919 105 94 124
-1.806218 -0.853315 7.505198 122 101 124
-1.806218 -0.853315 7.505198 122 101 124
-2.006853 1.286759 9.304694 87 71 113
-2.006853 1.286759 9.304694 87 71 113
-1.788013 -0.791349 7.584248 98 83 115
-1.760270 -2.021696 7.376333 98 85 108
-1.796675 -0.521206 7.680039 105 91 115
-1.754111 -2.141078 7.361268 115 96 114
-1.754111 -2.141078 7.361268 115 96 114
-3.410427 6.661014 21.840803 71 62 105
-3.633887 7.643912 24.124525 84 70 111
-3.173564 4.383127 20.363810 92 70 99
-3.173564 4.383127 20.363810 92 70 99
-2.005529 1.771418 9.783030 70 61 112
-2.005529 1.771418 9.783030 70 61 112
-1.847247 0.660251 8.428111 73 63 114
-1.950871 1.350170 9.416543 113 94 138
-3.182419 5.170433 20.637096 98 74 104
-3.182419 5.170433 20.637096 98 74 104
-1.766613 -0.291910 7.852413 61 50 83
-1.720886 -1.822693 7.560071 116 95 127
-1.713977 -1.143661 7.755854 92 80 132
-1.793449 -0.908995 8.635982 98 83 111
-1.688261 -1.902222 7.658096 101 82 104
-1.909131 1.608217 9.748581 82 67 110
-1.802004 0.722422 8.767593 76 67 122
-1.710168 -0.480648 7.941777 53 46 73
-1.770307 0.575516 8.629274 66 58 109
-1.770307 0.575516 8.629274 66 58 109
-1.661246 -2.040632 7.731141 115 91 117
-1.764461 0.757104 8.751445 73 62 118
-3.238401 7.383084 24.087530 83 68 118
-1.862565 1.561264 9.914124 69 58 90
-1.630912 -2.329279 7.764993 72 60 83
-3.144787 7.240943 23.844528 89 76 103
-1.727846 0.581067 8.809253 56 51 100
-1.715833 -0.327946 8.839746 65 57 94
-1.630643 -1.213818 7.988921 88 74 127
-1.621273 -1.636353 7.918824 100 85 115
-1.720933 -1.758986 9.173946 111 93 118
-1.652729 -0.804449 8.399692 100 80 111
-1.704311 -1.725012 9.233745 107 90 116
-1.834869 1.929707 10.570669 69 60 111
-1.834869 1.929707 10.570669 69 60 111
-1.589935 -1.995608 7.961848 109 89 107
-1.589935 -1.995608 7.961848 109 89 107
-2.853489 4.873113 22.741707 85 69 115
-1.664384 0.293230 8.829250 68 62 116
-2.918959 6.703007 23.876163 115 93 139
-1.730480 1.300012 9.901227 111 91 138
-1.730480 1.300012 9.901227 111 91 138
-1.636558 -0.717925 8.886018 80 64 92
-1.561481 -2.432540 7.991974 99 77 92
-1.561481 -2.432540 7.991974 99 77 92
-1.638609 0.265258 8.896704 69 63 120
-1.728975 1.495233 10.384424 107 82 117
-1.607909 0.265764 9.056376 76 66 121
-1.593019 -0.072945 9.028962 74 65 121
-1.587494 -1.248096 9.059752 34 33 68
-1.520002 -2.196173 8.146588 115 96 118
-2.928352 8.462880 26.687571 84 69 117
-1.585601 0.003990 9.136158 43 34 60
-1.593809 0.650524 9.229138 90 68 99
-1.571874 -1.184912 9.074630 81 70 119
-1.566992 -1.294488 9.012658 46 41 80
-1.720624 1.959329 10.953754 68 60 111
-2.602321 6.315852 23.750031 105 79 109
-1.567583 0.405629 9.249666 27 28 65
-1.566707 -1.975065 9.710833 46 35 65
-1.529987 0.128616 9.199848 54 44 94
-1.462541 -2.374175 8.268026 62 49 67
-1.530052 0.262870 9.234572 86 74 127
-1.544494 -1.756057 9.678199 39 35 68
-1.643245 2.048603 11.193804 71 62 113
-1.522086 0.502855 9.406052 64 58 109
-1.503875 -0.161127 9.207869 66 59 108
-1.437922 -2.008463 8.388644 95 82 136
-1.433942 -2.407114 8.343261 81 66 93
-1.510435 -2.082593 9.915311 39 35 64
-1.412868 -2.613931 8.412276 117 92 106
-1.476601 -1.058666 9.769907 36 27 53
-1.478863 -1.223073 9.871469 43 38 75
-1.397798 -2.339708 8.459815 119 98 116
-1.546816 1.846135 11.083915 87 71 113
-1.546816 1.846135 11.083915 87 71 113
-2.308481 7.032265 25.082460 113 89 129
-2.276620 6.532969 24.779907 85 65 98
-2.276620 6.532969 24.779907 85 65 98
-1.461370 0.585189 10.013320 65 52 77
-1.461370 0.585189 10.013320 65 52 77
-2.244480 6.273576 24.590498 106 85 133
-2.244480 6.273576 24.590498 106 85 133
-1.465073 0.864614 10.122043 66 58 113
-1.443167 0.061485 9.870489 89 69 102
-1.369202 -2.448104 8.549196 117 92 111
-1.517974 1.802976 11.160601 86 73 119
-1.431852 -1.129732 10.005159 55 50 91
-2.233293 7.329945 25.549824 115 93 141
-1.441386 0.874553 10.193237 72 61 112
-1.417571 -1.287161 10.012422 84 71 124
-1.421031 -1.878014 10.115200 79 65 111
-1.415644 -1.101570 9.989682 46 41 78
-1.415067 -1.101452 9.985579 46 40 80
-2.176133 6.765552 25.146477 80 59 90
-1.421511 1.030583 10.306290 103 87 142
-1.391577 -1.079367 10.107589 35 32 67
-1.401728 0.584362 10.156797 77 62 92
-1.401728 0.584362 10.156797 77 62 92
-1.387856 -1.305864 10.162795 91 76 128
-1.387856 -1.305864 10.162795 91 76 128
-1.368814 -2.462011 9.795508 27 21 43
-1.384597 -0.012349 10.111439 73 65 115
-1.374903 -1.273944 10.203825 79 66 118
-1.308295 -2.573366 8.698210 113 89 103
-1.365656 -1.044426 10.142026 37 36 66
-1.339134 -2.516141 9.875834 24 22 44
-1.353020 -1.307847 10.226864 84 71 124
-1.363579 1.056960 10.488570 110 94 147
-1.348402 0.478509 10.333547 80 69 124
-1.341916 -0.328192 10.485231 58 51 93
-1.981410 7.473089 26.085131 106 87 136
-1.981410 7.473089 26.085131 106 87 136
-1.981410 7.473089 26.085131 106 87 136
-1.907083 5.708090 24.589729 92 73 126
-1.907083 5.708090 24.589729 92 73 126
-1.342837 0.728281 10.408201 89 78 130
-1.416406 2.228547 12.099071 64 60 113
-1.327759 -0.934349 10.238032 43 36 80
-1.326720 -0.058899 10.264518 77 66 115
-1.325639 0.165813 10.271389 68 58 101
-1.325639 0.165813 10.271389 68 58 101
-1.318266 -0.888384 10.210195 54 48 93
-1.299957 -2.488088 9.965378 43 30 72
-1.328400 0.895526 10.521061 83 71 126
-1.861707 6.484746 25.442245 103 85 133
-1.301416 -0.027033 10.300661 76 63 117
-1.353647 1.685792 11.551677 103 84 135
-1.879823 7.249720 25.914534 100 83 135
-1.861832 6.740400 25.592894 98 82 131
-1.875499 7.248498 25.911190 100 83 135
-1.279015 -1.017655 10.120426 37 36 66
-1.283669 -2.136855 10.375229 72 60 105
-1.289865 -2.009509 10.574845 66 56 103
-1.270143 -0.466543 10.231391 38 36 71
-1.274864 0.046549 10.392277 50 37 65
-1.290699 1.005462 10.807413 74 59 112
-1.264081 -2.176152 10.368899 76 60 87
-1.264081 -2.176152 10.368899 76 60 87
-1.277733 0.958678 10.754632 113 95 148
-1.212419 -2.578475 8.981359 39 36 92
-1.212419 -2.578475 8.981359 39 36 92
-1.245814 -2.551761 10.290072 66 58 100
-1.251947 -0.334320 10.638338 76 65 105
-1.232818 -2.175538 10.473871 76 63 102
-1.229242 -1.305906 10.343812 52 44 89
-1.229242 -1.305906 10.343812 52 44 89
-1.286602 1.722581 11.901496 90 71 107
-1.186107 -2.482642 9.037204 41 38 88
-1.178599 -2.631529 9.029954 37 34 89
-1.234300 0.940738 10.809661 102 83 137
-1.241864 0.842655 11.613942 89 77 130
-1.243559 1.650006 11.959068 74 59 95
-1.230971 0.746721 11.678288 89 76 128
-1.599098 7.059113 26.273096 119 98 147
-1.222854 0.810298 11.742882 85 72 123
-1.186405 -0.518246 10.484756 44 40 82
-1.184374 -2.723136 10.964181 39 36 70
-1.191208 0.728979 11.603502 86 67 104
-1.162455 -2.516711 10.776257 31 27 55
-1.157838 -0.475014 10.490526 39 32 65
-1.153321 -0.997958 10.470094 60 49 96
-1.153321 -0.997958 10.470094 60 49 96
-1.154381 -2.605396 10.944992 26 25 49
-1.150192 -0.532918 10.535618 31 30 60
-1.190834 1.698577 12.154060 101 77 105
-1.481758 6.935056 26.205917 113 92 140
-1.484344 7.452949 26.710329 116 94 142
-1.142245 -0.661571 10.579866 26 21 40
-1.162363 0.973730 11.488447 83 70 125
-1.138514 -2.135240 10.993746 60 51 101
-1.156009 0.727675 11.799753 66 52 77
-1.156498 0.929518 11.772267 79 69 121
-1.143597 0.938048 11.497682 74 62 115
-1.118229 -0.586262 10.554413 24 25 51
-1.139519 0.626607 11.635243 76 66 120
-1.139516 0.682969 11.742865 79 68 117
-1.114733 -2.702742 11.148052 72 59 83
-1.396641 7.315961 26.655401 113 86 120
-1.396641 7.315961 26.655401 113 86 120
-1.109820 -0.642208 10.628240 21 21 45
-1.109820 -0.642208 10.628240 21 21 45
-1.145779 1.777794 12.251908 99 78 110
-1.113662 0.553369 11.387755 80 65 109
-1.086187 -1.071823 10.617024 72 64 118
-1.086187 -1.071823 10.617024 72 64 118
-1.107771 0.707857 11.816795 62 48 80
-1.105653 0.769577 11.924079 52 44 92
-1.079192 -0.701648 10.719946 65 55 93
-1.054847 -2.848390 9.295471 110 89 122
-1.112889 2.423053 13.085871 79 67 124
-1.068280 -0.776873 10.763028 68 58 101
-1.076073 0.098884 11.258832 78 67 117
-1.049345 -2.789037 9.365873 126 103 128
-1.079217 0.805796 11.973079 46 40 74
-1.059702 -2.623910 11.066932 28 24 50
-1.041251 -2.765284 9.370336 84 73 121
-1.074367 0.843430 12.007665 65 56 97
-1.052108 -0.118134 10.939073 74 62 114
-1.047515 -0.743531 10.802916 42 38 74
-1.054123 0.216894 11.334843 77 68 119
-1.052608 0.602575 11.516888 71 61 112
-1.054361 0.697892 11.903220 68 59 108
-1.037017 -1.832173 10.993705 30 29 58
-1.037017 -1.832173 10.993705 30 29 58
-1.243731 9.546186 30.259611 95 79 126
-1.062024 1.853676 12.627790 87 71 122
-1.036515 -0.016108 11.240211 63 57 106
-1.036515 -0.016108 11.240211 63 57 106
-1.043216 0.942418 12.095322 71 61 108
-1.014549 -2.902899 9.435465 82 67 118
-1.021742 0.790247 11.966215 33 29 64
-1.021742 0.790247 11.966215 33 29 64
-1.017838 0.734820 11.960285 62 52 88
-0.995912 -0.347312 11.091538 66 57 106
-1.015120 2.161908 12.777527 103 74 94
-1.002225 0.922695 12.124142 65 52 81
-1.003375 1.853656 12.726762 100 82 135
-0.988379 0.302437 11.581237 56 53 103
-0.984017 -0.373119 11.179045 64 55 105
-0.975794 -2.931000 9.528296 59 48 92
-0.975794 -2.931000 9.528296 59 48 92
-0.983106 0.041815 11.246189 51 45 90
-1.049322 6.844080 27.136358 110 86 119
-1.049322 6.844080 27.136358 110 86 119
-0.975244 -0.859876 10.989670 35 31 65
-0.970915 -2.288632 11.513506 44 38 80
-0.968345 -1.253003 11.090358 88 73 121
-0.968345 -1.253003 11.090358 88 73 121
-0.953855 0.279670 11.601992 55 50 94
-0.949370 0.920004 12.156982 69 54 81
-0.943008 -0.423923 11.229225 62 53 99
-0.946323 0.883950 12.124901 50 41 66
-0.930536 -1.113765 11.026852 68 60 106
-0.928176 -1.882964 11.317374 35 34 69
-0.932823 0.315111 11.666652 54 49 94
-0.926423 0.761264 12.006604 39 35 66
-0.916598 -0.840981 11.136914 26 24 51
-0.916598 -0.840981 11.136914 26 24 51
-0.911360 2.103626 13.086151 57 48 64
-0.903576 0.494267 11.467435 94 88 91
-0.894626 0.235845 11.584987 47 42 85
-0.894626 0.235845 11.584987 47 42 85
-0.889695 0.877465 12.102302 43 35 59
-0.889299 0.538054 11.523225 63 78 95
-0.888503 0.174613 11.333796 41 40 79
-0.883195 0.995700 12.254991 73 61 100
-0.874279 0.415621 11.411954 132 135 144
-0.868413 -0.899200 11.252392 49 46 81
-0.877214 -2.939907 9.787128 103 93 151
-0.856459 0.877163 12.102548 44 35 59
-0.850863 -1.968928 11.505741 33 32 67
-0.845267 1.079690 12.340508 90 74 122
-0.834601 -1.623028 11.930840 56 44 76
-0.834601 -1.623028 11.930840 56 44 76
-0.837780 0.946471 12.271270 64 52 76
-0.834874 0.554163 11.539966 38 52 77
-0.830638 -0.279647 11.362908 158 179 191
-0.823406 -3.064643 11.245894 60 46 73
-0.823616 -0.851856 11.387176 20 18 38
-0.823616 -0.851856 11.387176 20 18 38
-0.821949 -0.428570 11.492451 52 78 113
-0.813575 -2.567370 11.709351 64 53 98
-0.813575 -2.567370 11.709351 64 53 98
-0.819217 -0.519644 11.077201 54 45 87
-0.800999 0.920248 12.372752 59 47 70
-0.803567 0.276850 11.771810 185 179 181
-0.803300 -3.035188 11.267148 55 43 78
-0.796873 0.979138 12.379016 67 52 79
-0.611624 5.859241 27.535763 96 81 130
-0.801479 0.154312 11.675436 32 32 64
-0.817086 -3.055249 10.097050 23 23 67
-0.783966 -2.452410 12.055140 39 35 70
-0.789776 -3.117375 11.368615 65 56 96
-0.788741 0.435882 11.590943 139 142 152
-0.778189 -1.996743 11.730458 36 35 67
-0.778081 -0.838264 11.512286 20 19 39
-0.676990 3.433773 18.469648 68 60 112
-0.791052 -3.064893 10.169837 36 27 73
-0.789513 -3.155677 10.187021 71 60 114
-0.747503 -1.720747 11.996988 51 47 87
-0.753479 0.219673 11.773894 153 141 150
-0.729293 2.174966 13.554812 64 58 76
-0.720876 1.993837 13.522687 114 93 140
-0.731094 0.992670 12.549864 59 52 95
-0.766044 -3.209969 10.252727 97 84 135
-0.738266 -0.810400 11.623752 40 36 69
-0.726876 1.035170 12.594818 66 58 104
-0.711793 0.951773 12.552046 50 42 84
-0.750269 -3.158991 10.290013 76 63 108
-0.443274 5.671792 26.068590 108 88 126
-0.701541 -2.036547 11.896976 42 39 78
-0.735277 -3.151791 10.338709 118 101 136
-0.692716 -0.488897 12.349089 139 153 166
-0.708958 -2.834729 11.396885 36 29 50
-0.686882 -2.771102 12.194072 50 42 77
-0.694041 -0.778330 11.737165 85 106 127
-0.664539 -1.713719 12.262375 27 28 56
-0.679982 -2.884237 11.497252 48 38 64
-0.669941 -0.817536 11.780718 79 98 120
-0.673465 -2.961905 11.439828 40 34 68
-0.620217 2.024675 13.826962 109 91 138
-0.650519 -0.676923 11.898408 100 122 144
-0.687431 -3.076416 10.439522 92 80 132
-0.687036 -3.073828 10.434569 92 80 132
-0.627562 1.479989 12.921182 108 89 131
-0.626601 -2.801376 12.341568 64 54 93
-0.626601 -2.801376 12.341568 64 54 93
-0.679198 -3.217732 10.434656 126 103 131
-0.634349 0.854252 12.234504 34 33 69
-0.674791 -3.275284 10.461780 81 64 88
-0.624109 1.020167 12.560634 60 52 96
-0.667201 -3.117830 10.469481 104 85 132
-0.665914 -3.160706 10.471409 130 108 135
-0.606163 -1.764265 12.333775 35 33 69
-0.590750 1.083568 12.560527 84 69 119
-0.642604 -3.097981 10.548092 81 69 121
-0.606816 -3.057544 11.632882 56 50 88
-0.581840 1.169395 12.661125 98 82 130
-0.560996 1.772556 13.413154 101 85 132
-0.223143 6.071228 24.971365 105 88 139
-0.635065 -3.223353 10.581069 135 113 141
-0.572284 -1.614866 12.457373 65 55 98
-0.566351 -2.624482 12.614430 39 33 68
-0.521984 2.107190 14.110775 116 94 141
-0.575335 -2.960398 11.831533 63 53 83
-0.545994 0.603957 12.466298 103 85 99
-0.553032 -0.586866 12.095849 41 42 75
-0.525543 -1.809094 12.649480 81 72 124
-0.516252 -1.759052 12.661712 76 68 119
-0.516141 -2.179115 12.435728 38 35 71
-0.465437 2.123413 14.219391 116 95 140
-0.578365 -3.338567 10.719521 28 22 71
-0.512035 0.671338 12.585096 137 117 131
-0.516804 -0.037933 12.362823 79 97 122
-0.511359 -3.394672 12.228417 36 30 61
-0.566514 -3.247191 10.720333 105 87 143
-0.503938 0.309084 12.494793 140 144 154
-0.489572 -1.841959 12.722121 80 69 124
-0.563477 -3.179168 10.725080 108 92 150
-0.483350 -1.002968 12.689508 51 46 89
-0.559553 -3.156208 10.651269 108 91 150
-0.551980 -3.296912 10.764570 108 89 135
-0.422042 2.093460 14.298403 117 92 126
-0.466450 -1.864469 12.714884 76 65 120
-0.466514 -0.138755 12.582375 60 71 104
-0.453185 1.056885 12.836057 72 61 111
-0.453185 1.056885 12.836057 72 61 111
-0.431632 -2.368953 12.988120 27 26 52
-0.470585 -3.005186 12.047318 25 22 46
-0.470585 -3.005186 12.047318 25 22 46
-0.470585 -3.005186 12.047318 25 22 46
-0.443664 -3.260531 12.307359 41 37 71
-0.422910 -1.625105 12.691154 89 71 104
-0.422910 -1.625105 12.691154 89 71 104
-0.503278 -3.289035 10.801770 106 89 146
0.028335 5.465016 23.568707 117 96 143
-0.416829 -2.227253 12.626003 37 34 70
-0.412952 0.514181 12.768994 137 141 150
-0.489339 -3.386452 10.895584 103 88 144
-0.407034 0.678639 12.790369 133 116 130
-0.367101 -1.631296 13.058682 95 72 104
-0.406388 -3.002938 12.194450 39 33 54
-0.355378 1.001325 13.078105 82 66 92
-0.363602 0.273620 12.829732 56 56 79
-0.359858 0.238486 12.865999 49 53 73
-0.443447 -3.479844 11.029058 110 90 145
-0.348697 1.284453 13.140218 107 89 144
-0.342084 -1.574878 12.981002 84 68 113
-0.342084 -1.574878 12.981002 84 68 113
-0.330424 -1.917159 13.133737 68 61 115
-0.329127 -1.978964 13.107019 72 64 112
-0.321891 -2.042320 13.176414 62 56 107
-0.323740 -1.459615 13.062543 71 60 105
-0.319463 -2.062032 13.016029 56 50 101
0.170209 6.132147 23.425056 111 86 120
-0.303765 -1.949316 13.127340 69 62 113
-0.289721 1.302120 13.285277 113 97 152
-0.209202 2.179755 14.887279 77 59 91
-0.299194 -0.065261 12.919147 17 16 35
-0.284643 1.068007 13.225272 83 69 117
-0.284935 -1.647420 12.905024 74 61 86
-0.251023 -0.588905 13.469373 53 46 83
-0.266114 -1.362491 13.015682 73 61 103
-0.166227 2.138685 14.912705 120 101 142
-0.252109 0.309630 13.096922 27 24 49
-0.241628 1.089984 13.328080 79 67 122
-0.248608 -1.854364 12.909730 80 68 124
0.277805 6.168219 22.855865 115 92 133
-0.248577 -0.158825 12.952831 29 27 50
-0.233869 -0.765599 13.096345 23 26 54
-0.241488 -1.522158 12.845846 56 50 89
-0.196816 -2.975869 13.536022 89 69 106
-0.196816 -2.975869 13.536022 89 69 106
-0.325943 -3.325891 11.041593 102 89 141
-0.181662 -0.641789 13.491270 50 43 80
0.335210 6.290495 22.788328 122 99 143
-0.190076 1.093804 13.413018 83 71 127
-0.190076 1.093804 13.413018 83 71 127
-0.194422 -0.062128 13.149722 29 27 56
-0.208879 -1.718204 12.848421 65 59 105
-0.183372 0.701200 13.353407 127 142 159
-0.196089 -1.785168 12.948469 69 60 111
0.351820 5.860077 22.511345 122 99 147
0.351820 5.860077 22.511345 122 99 147
-0.197261 -2.180389 12.841777 86 70 112
-0.194518 -3.267155 12.890844 24 23 43
-0.174941 -1.840169 12.948604 82 69 123
-0.160997 -3.235320 12.903705 32 27 42
-0.155727 -3.301505 12.899017 27 23 46
0.032400 2.598321 15.657039 73 63 98
-0.246342 -3.353257 11.165561 78 64 120
0.435238 4.815996 21.456507 112 88 120
0.050414 2.240684 15.520295 113 93 137
-0.089657 -3.065178 13.155704 65 58 103
0.105944 2.727522 15.839923 118 99 145
0.105944 2.727522 15.839923 118 99 145
-0.194088 -3.355334 11.245374 91 77 138
0.120811 2.307509 15.718299 110 90 137
0.157449 2.634578 15.898283 69 59 89
-0.014393 -3.199468 13.057178 43 39 67
0.201666 2.589224 15.943394 63 55 80
0.092085 -3.238900 14.290799 74 60 102
0.023096 -0.436176 13.129048 80 63 96
0.023096 -0.436176 13.129048 80 63 96
0.024848 -1.910561 13.115014 87 76 128
0.132078 1.895590 14.338829 101 77 111
-0.035982 -3.323867 11.555598 106 91 146
0.362407 2.421313 16.392042 111 90 139
-0.024083 -3.569892 11.605954 69 62 118
0.438433 2.496950 16.541182 108 90 140
0.032384 -3.674212 11.701035 104 88 141
0.181066 0.447804 13.383906 74 65 116
0.175058 -0.024103 13.269931 90 71 111
0.196138 0.812162 13.492275 98 82 134
0.173624 -0.573563 13.139175 59 53 99
0.749683 4.686480 19.864796 115 93 141
0.241161 -2.352861 13.760285 72 61 104
0.234225 0.806228 13.641137 89 69 112
0.246653 1.230888 13.751618 60 48 102
0.240148 0.767511 13.608581 72 57 85
0.515355 2.529212 16.710730 108 90 142
0.081303 -3.659059 11.766515 108 91 142
0.525443 2.589172 16.670385 113 94 146
0.099967 -3.211911 11.828752 28 25 53
0.221245 -0.788490 13.127554 52 45 90
0.345208 -1.988848 13.997160 69 59 112
0.884049 4.620651 19.325602 125 95 126
0.335847 -0.705434 13.525938 74 66 119
0.672501 2.522131 17.031477 111 94 131
0.672501 2.522131 17.031477 111 94 131
0.988769 5.740766 20.145802 114 97 119
0.358617 -2.349368 13.202349 49 43 84
0.424188 0.241866 13.820921 73 63 117
0.457712 1.289701 14.115936 113 99 157
0.268263 -3.247545 12.221177 65 54 102
0.268263 -3.247545 12.221177 65 54 102
1.149369 6.154801 20.891989 75 66 102
0.554288 0.737799 14.687184 75 63 118
1.153674 5.883814 20.348312 127 106 150
0.531615 1.106164 14.248578 75 62 122
1.137205 5.691834 19.888996 146 120 157
0.526521 -3.055147 14.015344 34 30 64
0.570458 -1.693029 14.372317 60 53 98
0.570458 -1.693029 14.372317 60 53 98
0.623707 0.775319 14.793325 71 60 115
0.680532 -2.320989 15.243256 49 42 84
1.331904 6.550156 21.310122 112 95 138
0.594389 1.172829 14.374236 73 61 117
1.133431 5.469169 19.357899 138 115 143
1.133431 5.469169 19.357899 138 115 143
1.223857 5.800107 20.107912 128 107 152
0.603188 -0.336280 14.330630 67 58 112
1.137776 3.638113 19.210772 71 65 115
1.031974 3.130494 18.027498 75 66 125
0.407950 -3.902449 12.340854 106 84 106
1.014763 2.552523 17.681190 73 61 85
1.014763 2.552523 17.681190 73 61 85
0.644152 0.868872 14.339966 71 63 120
0.635937 0.127803 14.194565 74 66 123
0.625247 -0.251260 14.094402 79 68 124
0.441734 -3.356261 12.453662 44 40 53
0.436159 -3.898484 12.414871 131 106 129
1.319100 5.802181 20.154995 123 103 147
1.250584 3.756589 19.329996 66 57 98
1.113102 3.048068 18.125185 85 71 126
0.719743 -1.024003 14.634085 25 26 56
1.136836 2.520732 18.177429 94 79 127
0.488119 -3.002382 12.570993 67 55 91
0.746613 -2.041546 14.722506 52 46 91
0.746613 -2.041546 14.722506 52 46 91
0.784039 -1.141400 14.910253 71 60 99
0.834407 -1.797717 15.180774 84 67 100
0.834407 -1.797717 15.180774 84 67 100
1.489138 6.087255 20.711176 110 91 133
0.776715 0.503502 14.660162 77 68 127
0.737401 -0.077554 14.299152 84 72 125
1.537311 6.531474 20.947657 105 86 126
1.226587 2.639182 18.268024 114 96 143
0.794292 1.189438 14.682846 92 79 133
1.258976 3.050559 18.506292 140 119 158
0.811385 -1.745926 14.761522 81 65 108
0.558396 -3.179761 12.685072 41 36 68
0.828934 0.522885 14.710570 75 61 107
0.828934 0.522885 14.710570 75 61 107
0.798185 -0.154114 14.392010 84 74 130
0.849189 0.591266 14.809442 78 62 104
0.849906 0.872832 14.769811 55 50 103
1.358354 2.572606 18.506874 92 75 107
0.902032 0.763652 14.855952 93 73 115
0.902032 0.763652 14.855952 93 73 115
0.900964 0.638470 14.843256 88 72 102
1.398616 2.729857 18.726276 112 95 139
0.647236 -3.797976 12.736629 116 99 131
0.935384 0.166905 14.836954 80 69 126
0.690130 -3.797709 12.826189 124 106 138
1.496636 2.723018 18.825298 112 95 131
0.773597 -2.688511 13.255043 78 68 126
1.697412 5.257184 20.169701 119 97 140
1.697412 5.257184 20.169701 119 97 140
1.695080 5.029562 20.112707 105 81 110
1.590507 3.214278 19.136936 89 76 128
1.586109 2.807187 19.084974 105 87 140
1.037131 0.222221 14.960568 92 83 135
0.811423 -2.815206 13.284887 56 49 104
0.800183 -3.181857 13.135192 43 40 78
0.817514 -2.887030 13.183640 79 68 118
1.185093 0.816140 15.269545 93 74 105
1.087719 -1.697240 14.335572 58 45 76
1.277188 1.451556 15.603748 96 83 141
1.277188 1.451556 15.603748 96 83 141
0.980859 -2.602404 13.459417 93 82 134
1.951073 2.986258 20.073799 108 90 144
2.190532 6.235138 21.679756 101 86 128
2.141065 5.740751 21.188591 134 110 144
2.141065 5.740751 21.188591 134 110 144
2.086044 4.614556 20.780508 111 85 113
2.138554 4.987444 20.922781 103 87 135
1.329416 1.205968 15.459386 85 73 132
2.027189 3.047947 20.012396 112 93 147
1.050008 -2.913809 13.540808 74 61 106
2.130449 3.149689 20.074781 110 92 140
1.136664 -2.956467 13.654859 72 62 93
2.384737 5.867901 21.626705 133 113 153
1.169357 -2.707880 13.755090 115 100 151
1.327671 -2.178871 14.744546 82 69 123
1.150983 -3.596795 13.645536 31 28 57
2.321737 3.799109 20.907892 47 42 85
1.211501 -2.343112 13.883603 41 36 77
2.010441 2.529566 18.857782 88 73 121
2.274497 3.116911 20.447041 112 92 145
1.243882 -2.961641 13.840436 99 86 137
1.793225 -0.036715 17.075842 72 62 114
2.360569 3.053554 20.432812 93 74 121
1.306122 -2.841606 14.006145 82 71 129
1.259819 -4.296920 13.735251 121 101 120
1.319867 -2.783473 13.991266 105 91 144
1.352471 -2.392201 14.042468 78 65 110
1.361596 -3.034749 14.093284 107 90 122
1.401755 -3.376951 14.075609 107 87 108
1.431200 -2.150196 14.228435 36 35 79
1.456202 -2.075199 14.272291 57 51 101
1.414345 -4.391865 14.005750 130 108 127
1.469351 -3.550553 14.154241 119 101 124
1.502551 -3.196314 14.220111 105 85 114
1.546348 -1.584248 14.387033 128 110 159
1.604640 -1.127070 14.674881 62 52 83
1.549632 -2.118137 14.370113 40 37 82
2.188840 1.538552 17.878117 90 80 140
1.572039 -2.178639 14.404953 22 22 57
1.572039 -2.178639 14.404953 22 22 57
2.899903 3.249341 21.735107 104 91 128
2.869303 3.125306 21.488388 96 80 121
2.927853 3.850624 21.784323 40 41 62
2.927853 3.850624 21.784323 40 41 62
1.583212 -2.936869 14.341357 125 108 160
2.447252 -0.333905 19.033308 67 53 84
1.624659 -2.524746 14.470735 57 52 92
1.582910 -4.445248 14.266313 115 97 121
2.289975 1.605759 18.090250 105 89 143
1.594540 -4.222000 14.287702 110 94 123
1.717558 -0.657703 14.806043 75 66 122
3.085204 3.764336 22.125477 76 66 120
2.203276 0.372637 17.332821 80 69 125
1.651975 -4.532301 14.379389 128 107 128
3.412853 5.002823 23.832542 64 56 102
3.337114 5.707878 23.386845 56 50 64
3.337114 5.707878 23.386845 56 50 64
1.690233 -2.705337 14.523953 72 61 106
3.267383 4.919001 22.956776 70 62 108
3.267383 4.919001 22.956776 70 62 108
3.423425 6.314506 23.790277 127 105 146
3.125295 3.253186 22.123508 75 66 93
1.762194 -2.276392 14.712878 27 28 59
1.713038 -4.208472 14.445150 119 97 121
1.738145 -3.020351 14.547592 131 114 140
1.754826 -2.723028 14.627149 83 67 113
1.737252 -3.741414 14.519258 118 97 124
2.526197 1.645477 18.581829 105 90 145
2.492682 0.706731 18.317646 88 74 126
1.781330 -2.979440 14.570635 128 109 135
1.777641 -4.313148 14.566664 123 100 119
3.325110 3.361041 22.498981 87 72 99
2.635024 1.864152 18.831949 98 85 143
1.874303 -2.691010 14.850219 79 68 118
2.707213 1.074871 18.839565 72 63 119
1.863712 -4.253356 14.606301 125 104 131
1.900844 -3.840231 14.741650 96 76 92
1.957722 -3.151733 14.882586 99 85 115
1.957722 -3.151733 14.882586 99 85 115
1.916432 -4.218873 14.666492 121 104 137
1.983338 -3.897587 14.880300 82 63 82
2.761820 0.581424 18.560211 80 64 112
2.100855 -2.282141 15.151712 94 85 113
2.100855 -2.282141 15.151712 94 85 113
2.082083 -3.989514 15.031187 112 96 114
2.158181 -1.219864 15.347713 125 105 154
2.158181 -1.219864 15.347713 125 105 154
3.537681 3.706915 21.798277 74 66 120
4.470554 8.586777 26.174475 101 87 87
2.141218 -4.612114 15.072170 133 119 144
3.486847 3.113547 21.404463 91 79 105
2.221419 -2.710819 15.306767 107 90 122
3.524462 3.755839 21.287487 48 44 75
2.350987 -1.714850 15.598154 119 104 134
2.350987 -1.714850 15.598154 119 104 134
2.350987 -1.714850 15.598154 119 104 134
2.422724 -0.755736 15.836766 106 87 139
2.337617 -2.775925 15.439927 112 99 128
2.319706 -4.837327 15.324545 101 86 114
2.312510 -3.543566 15.257741 93 80 111
3.476183 3.032978 20.408113 94 81 133
2.388896 -3.282122 15.448825 133 113 133
2.384734 -4.622270 15.410741 127 104 126
2.479563 -1.288183 15.737123 117 97 142
3.426599 3.028711 19.893316 108 89 142
3.405508 3.061940 19.626493 112 94 148
2.521377 -2.864527 15.719078 118 103 134
2.521377 -2.864527 15.719078 118 103 134
2.571493 -0.803441 15.918176 80 69 128
2.508862 -3.363232 15.663576 126 106 126
2.508862 -3.363232 15.663576 126 106 126
2.508886 -4.633996 15.501395 105 85 114
2.640595 -1.864908 15.895325 108 92 121
2.658458 -1.823102 15.955697 118 101 132
2.628945 -4.764038 15.701921 125 101 119
2.823544 -0.823313 16.318333 72 64 120
3.374094 3.044499 18.575487 80 68 122
2.747553 -3.476822 15.935203 110 91 108
2.799608 -4.833135 15.937583 119 99 117
2.776223 -4.747422 15.832261 110 88 115
2.879432 -0.832230 16.194145 87 77 130
2.916593 -1.383751 16.348717 137 115 145
3.020947 -0.325558 16.593241 65 60 97
3.176325 1.528063 16.994360 102 90 149
2.955880 -3.826186 16.054192 101 88 115
3.133378 -0.322979 16.717382 27 26 58
3.093366 -1.999357 16.488184 117 102 134
3.230901 0.366318 16.861219 72 59 100
3.251729 0.334002 16.878164 79 63 99
3.251729 0.334002 16.878164 79 63 99
3.104163 -5.051230 16.309023 102 78 95
3.569031 4.869968 18.008812 146 122 171
3.858126 5.611146 19.130747 100 82 127
3.575651 3.526197 17.885952 44 42 76
3.314377 -0.320525 16.794352 34 30 56
3.200856 -5.098145 16.401707 97 79 99
3.200856 -5.098145 16.401707 97 79 99
3.211100 -3.944020 16.405104 128 108 134
3.211100 -3.944020 16.405104 128 108 134
3.419079 -0.257511 17.069910 70 57 89
3.473422 -0.398946 17.141693 35 32 66
3.348051 -3.751637 16.646639 103 87 104
3.348051 -3.751637 16.646639 103 87 104
3.547847 0.476525 17.354897 84 73 123
3.513801 0.365578 17.224941 84 72 121
3.465096 -0.889427 17.042484 42 37 90
4.131107 5.728927 19.427086 99 82 125
3.742096 4.627689 17.904533 104 86 135
3.737417 2.739558 17.863909 100 85 136
3.388750 -5.243688 16.603384 90 77 111
3.506291 -2.066282 16.960384 86 73 94
3.424850 -2.718349 16.640148 113 96 125
3.601926 -0.266974 17.263113 79 67 117
3.474085 -4.659223 16.829649 113 92 112
3.484915 -3.221945 16.817528 118 96 121
3.608054 -0.605416 17.234241 63 54 101
3.608054 -0.605416 17.234241 63 54 101
3.566236 -0.940276 17.068588 82 70 126
3.488321 -2.858278 16.779140 111 92 121
3.488321 -2.858278 16.779140 111 92 121
3.497910 -5.307171 16.813578 119 101 125
3.817689 2.691108 17.911343 102 87 139
3.518830 -2.799884 16.816675 106 87 119
3.512756 -4.119087 16.787182 115 99 117
3.887254 2.363937 17.906624 71 64 109
3.812225 1.518084 17.616261 100 82 127
3.816728 0.489662 17.619041 84 73 123
3.645065 -3.883995 17.006136 108 93 117
3.676062 -2.108989 17.094891 113 98 128
3.986871 2.980716 18.116327 78 67 117
3.986871 2.980716 18.116327 78 67 117
3.986871 2.980716 18.116327 78 67 117
3.974234 2.374675 17.991867 84 77 121
4.014377 3.038561 18.127419 77 69 120
3.731138 -2.120738 17.108976 105 92 120
3.739638 -1.576153 17.087046 114 104 135
4.143551 4.644481 18.449455 94 82 128
3.798845 -1.658104 17.254400 113 100 132
3.798845 -1.658104 17.254400 113 100 132
3.772114 -2.863012 17.158445 122 101 123
4.080070 3.413393 18.193241 66 56 96
3.768933 -3.858050 17.124699 122 107 130
4.128584 4.132799 18.321377 92 76 126
4.128584 4.132799 18.321377 92 76 126
3.794752 -2.924538 17.135918 121 97 115
4.122564 3.306644 18.238317 54 49 88
3.806708 -3.940712 17.154413 116 103 124
4.191344 4.243959 18.426661 92 78 124
4.005568 0.918803 17.776682 94 77 120
4.005568 0.918803 17.776682 94 77 120
4.176487 4.140113 18.342802 90 76 126
4.156086 3.385751 18.266535 57 51 86
4.156086 3.385751 18.266535 57 51 86
3.830579 -4.840889 17.184683 93 76 107
3.873394 -3.389743 17.273769 108 87 113
3.816236 -5.442118 17.084555 128 107 125
4.019698 -0.392873 17.659519 61 53 93
4.229396 3.442293 18.312147 73 63 107
4.017311 -3.478667 17.597092 124 104 131
3.948436 -2.978657 17.313332 103 86 119
3.965815 -1.632655 17.356022 105 85 110
4.360457 4.981986 18.670883 135 112 156
3.941229 -3.599727 17.279249 113 99 129
4.168717 1.519879 18.011694 89 75 127
4.178120 1.598188 18.039940 115 98 149
3.948287 -4.887221 17.242136 80 68 98
3.976995 -4.027979 17.301882 101 86 111
3.976995 -4.027979 17.301882 101 86 111
4.326021 4.041319 18.420908 85 73 122
4.344546 3.125046 18.488604 81 71 123
4.259768 2.196684 18.184046 95 77 119
4.115731 -0.369312 17.697561 52 45 83
4.201625 0.418245 17.985313 58 49 73
4.023015 -3.430918 17.411184 119 97 122
4.032572 -2.252387 17.426138 108 87 110
4.264341 1.538316 18.082201 105 80 114
4.352529 2.300669 18.367493 105 81 110
4.424765 4.018183 18.579649 88 73 120
4.108375 -2.457315 17.546223 121 100 124
4.211388 -0.284279 17.838448 63 51 80
4.503651 5.054320 18.769869 114 95 148
4.087532 -3.650954 17.414848 92 80 115
4.133181 -3.573562 17.555025 111 100 131
4.284632 0.201090 18.009621 89 78 100
4.483905 4.941500 18.648783 129 107 159
4.151571 -2.982136 17.583677 98 81 110
4.163605 -1.057565 17.585779 104 81 108
4.524634 4.909381 18.757851 105 87 139
4.524634 4.909381 18.757851 105 87 139
4.186080 -2.280327 17.632076 111 92 115
4.182433 -2.446424 17.620510 117 95 120
4.110647 -5.533941 17.400461 116 94 118
4.158231 -3.470356 17.490826 121 100 121
4.402472 2.194474 18.234179 66 47 80
4.242992 -0.392368 17.710398 77 66 108
4.443910 2.166553 18.338524 68 60 99
4.443910 2.166553 18.338524 68 60 99
4.474399 1.524396 18.437490 115 94 118
4.558140 4.099427 18.670813 87 72 119
4.156482 -5.000463 17.424311 98 87 109
4.334368 -0.996787 17.937149 71 54 80
4.223670 -5.593313 17.588980 120 99 124
4.268427 -3.084689 17.689667 116 94 122
4.699351 4.594592 19.032770 84 71 122
4.390395 0.144677 18.032934 113 98 126
4.390395 0.144677 18.032934 113 98 126
4.578032 2.884968 18.617767 93 77 89
4.427482 -0.123640 18.102062 113 88 100
5.337607 6.889244 21.037649 109 88 84
4.603347 2.794840 18.555599 78 65 95
4.603347 2.794840 18.555599 78 65 95
4.616891 2.022915 18.591234 90 75 115
4.334848 -3.621229 17.710865 101 86 117
4.357893 -4.673022 17.770527 121 100 118
4.396477 -0.451521 17.837048 104 82 94
4.396477 -0.451521 17.837048 104 82 94
4.384864 -3.531574 17.810766 121 99 123
4.757654 3.538589 18.952984 71 61 107
4.760493 4.970566 18.925270 119 102 152
4.760493 4.970566 18.925270 119 102 152
4.816715 4.697113 19.084557 81 69 120
4.400850 -4.746853 17.801247 117 97 116
4.400850 -4.746853 17.801247 117 97 116
4.693794 2.925513 18.666563 76 66 116
4.705628 2.798408 18.586367 71 59 79
4.515378 -2.362039 18.017132 110 95 121
4.761285 2.351933 18.751564 110 89 106
4.735732 1.590577 18.616180 105 85 103
4.580118 -1.256874 18.117104 115 93 120
4.837885 4.109549 18.873388 78 65 111
4.577301 -1.695189 18.064051 89 80 110
4.520288 -3.805855 17.879328 111 99 126
4.595239 -2.442499 18.055870 109 93 123
4.621377 -1.190607 18.100967 118 95 124
4.621377 -1.190607 18.100967 118 95 124
4.740816 1.119610 18.456125 79 64 92
4.546699 -3.594776 17.867201 122 100 121
4.616152 -4.019765 18.040800 108 93 122
4.946888 4.048108 18.982174 90 78 106
4.615756 -3.186891 17.997244 115 94 119
5.088625 5.400744 19.411877 103 83 128
4.946458 3.730922 18.969200 75 66 96
4.825141 1.091392 18.580523 106 87 113
4.576953 -3.750482 17.849615 103 90 123
5.068058 5.265281 19.309669 102 81 128
4.622794 -5.000167 17.996204 110 94 119
5.108293 4.978567 19.421875 108 90 137
4.693791 -1.751277 18.121660 107 89 120
5.028797 4.998466 19.099037 80 69 117
5.028797 4.998466 19.099037 80 69 117
4.681406 -3.900931 18.083879 113 98 127
4.662531 -4.751093 18.027424 118 98 117
4.661295 -4.592124 17.965233 112 97 120
4.894159 1.559802 18.619019 87 73 97
5.082407 3.855941 19.128525 67 51 69
9.497915 11.559505 32.803600 91 72 66
5.168887 3.750004 19.199146 66 49 70
5.242027 5.139367 19.350714 92 78 89
4.872136 -2.501633 18.283609 115 95 122
5.058265 1.590582 18.778822 102 88 117
4.891060 -4.694338 18.296885 109 91 108
4.891060 -4.694338 18.296885 109 91 108
5.126369 1.067611 18.807613 115 89 111
4.920081 -3.954556 18.189322 127 111 136
4.920081 -3.954556 18.189322 127 111 136
4.951169 -3.228240 18.209618 114 96 121
5.383924 4.387155 19.421202 75 58 69
5.022682 -3.693542 18.393883 123 100 125
5.093404 -2.555932 18.498407 71 54 64
5.377397 4.290613 19.266855 50 40 56
5.072681 -4.023495 18.438839 127 110 134
5.251765 0.997065 18.900423 61 48 66
5.251765 0.997065 18.900423 61 48 66
5.424312 3.794363 19.376360 78 59 76
5.070720 -3.751113 18.399599 126 100 119
5.508200 4.973560 19.596338 102 83 91
5.106166 -1.848228 18.399405 91 76 105
5.470464 3.716729 19.412178 87 64 86
5.322774 1.071538 18.979731 122 101 116
5.192449 -3.804198 18.640673 119 94 117
5.554582 5.232600 19.586008 110 95 116
5.143859 -4.727388 18.468397 87 73 88
5.291794 -0.486630 18.832613 116 97 121
5.165280 -4.486579 18.478161 101 83 106
5.202125 -4.823408 18.588799 115 94 106
5.213308 -3.927630 18.606167 111 90 105
5.584923 2.898190 19.615602 100 82 106
5.210559 -3.975868 18.586540 80 68 86
5.552826 3.804968 19.501781 80 62 79
5.480478 1.976818 19.301685 124 96 117
5.307088 -1.100733 18.768400 73 57 80
5.250416 -4.215313 18.626726 104 87 114
5.250416 -4.215313 18.626726 104 87 114
5.563126 2.937135 19.463539 92 73 95
5.320854 -1.206465 18.774464 95 78 104
5.759963 5.226624 19.937998 99 81 83
5.344982 -1.135290 18.776848 88 74 99
5.386974 -1.061748 18.842983 135 114 136
5.386974 -1.061748 18.842983 135 114 136
5.385483 -3.354384 18.785061 109 93 118
5.390579 -4.118962 18.754940 113 95 123
5.390579 -4.118962 18.754940 113 95 123
5.519170 0.322243 19.021519 114 97 117
5.519170 0.322243 19.021519 114 97 117
5.521894 0.381347 19.000526 114 96 115
5.521894 0.381347 19.000526 114 96 115
5.831767 5.292248 19.779623 104 86 97
5.414350 -4.893252 18.697706 119 98 121
5.414350 -4.893252 18.697706 119 98 121
5.876836 5.249391 19.875422 91 76 79
5.471879 -4.603014 18.776825 113 95 119
5.455696 -5.941920 18.739908 120 99 122
5.481530 -4.879325 18.764828 115 94 119
5.953317 5.427211 19.946836 116 102 119
5.583775 -1.288053 18.940559 104 87 111
5.580531 -4.124452 18.863934 102 86 113
5.951149 4.159711 19.775719 96 73 98
5.998344 5.338441 19.878767 100 89 105
5.647741 -4.594595 18.970161 92 71 97
6.065345 4.577800 19.975126 58 52 58
5.791000 0.251036 19.250120 118 103 131
6.024729 4.446146 19.854816 103 90 112
6.124521 5.675275 20.096127 105 94 110
5.683160 -4.221459 18.946852 108 90 118
5.781372 -1.936608 19.186260 69 60 85
5.689878 -5.000991 18.973341 113 92 117
5.673141 -4.524892 18.915512 125 102 126
5.658260 -3.335563 18.836628 105 94 125
5.731164 -5.175375 19.036083 112 90 116
5.699077 -4.177701 18.916027 109 92 117
5.696129 -4.937823 18.919115 111 89 117
5.705706 -5.833511 18.919790 95 77 108
5.690093 -5.736785 18.853167 104 82 112
5.690093 -5.736785 18.853167 104 82 112
5.793071 -2.685274 19.073929 104 86 110
6.061231 2.196447 19.731823 109 95 119
5.817225 -5.127687 19.133589 117 95 115
5.948965 0.295655 19.417418 106 93 120
5.948965 0.295655 19.417418 106 93 120
6.063494 1.521202 19.693613 100 77 104
5.965909 1.130451 19.404722 108 95 119
5.862575 -3.489684 19.144579 110 91 118
5.967515 1.175101 19.357061 111 100 126
5.797290 -4.227749 18.925940 111 90 117
5.910098 -3.435400 19.208513 107 97 128
6.230155 5.345982 19.978647 116 97 111
6.896897 6.660239 21.735313 106 89 83
6.896897 6.660239 21.735313 106 89 83
5.889299 -4.968029 19.091021 98 81 102
5.890090 -5.041996 19.003712 103 82 105
5.890090 -5.041996 19.003712 103 82 105
5.977436 -0.609127 19.175489 104 86 112
6.101720 1.212261 19.482248 108 97 124
5.992952 -1.321928 19.199602 112 90 114
5.992952 -1.321928 19.199602 112 90 114
5.986859 -5.180142 19.225359 120 95 120
6.241956 1.224937 19.702305 112 99 128
6.379724 4.471695 20.016838 82 71 97
6.207314 1.156339 19.575636 121 112 137
6.102916 -3.563543 19.333118 113 90 114
6.443717 3.595195 20.161366 105 85 105
6.396733 3.375104 20.013327 108 86 104
6.459719 5.473644 20.144844 117 101 118
6.280635 0.431848 19.680670 104 84 95
6.328388 3.158924 19.709686 116 90 105
6.190091 -3.490299 19.419086 114 100 128
6.219993 -5.226212 19.405029 128 106 128
6.219993 -5.226212 19.405029 128 106 128
7.286184 6.852764 22.064022 93 76 75
6.292844 -2.795166 19.478449 109 88 110
6.429207 1.095614 19.782026 114 97 121
6.429207 1.095614 19.782026 114 97 121
6.486091 1.333534 19.926268 122 106 125
6.291187 -5.323647 19.489799 100 79 98
6.280500 -5.394212 19.446747 104 82 109
6.280500 -5.394212 19.446747 104 82 109
6.642536 5.482500 20.141142 108 97 114
6.601604 1.153009 20.013807 128 115 139
6.631432 1.673114 20.042883 41 32 41
6.724501 4.014863 20.206121 113 92 109
6.557581 0.322333 19.752230 108 98 123
6.504609 -2.832011 19.616253 88 74 97
6.798404 5.628112 20.241863 121 107 123
6.616886 -0.635010 19.801804 114 96 113
6.752872 2.434247 20.025732 63 54 77
6.632254 -5.352288 19.635408 116 94 119
6.708675 -3.102279 19.761112 114 92 110
6.708675 -3.102279 19.761112 114 92 110
6.770949 -1.997602 19.872889 119 99 118
6.984827 3.989361 20.325359 126 105 128
7.062036 5.691050 20.462324 107 92 101
6.748940 -2.869725 19.715277 98 84 101
6.759398 -5.405336 19.762785 110 89 112
6.759398 -5.405336 19.762785 110 89 112
6.812230 -2.092310 19.830561 108 97 128
7.036952 3.927320 20.296238 156 124 130
6.835388 -3.116504 19.847803 102 83 103
6.982641 1.103556 20.159142 132 116 139
7.146651 4.061049 20.492180 117 99 123
6.845468 -3.050087 19.821295 112 93 113
6.845468 -3.050087 19.821295 112 93 113
7.226658 5.745592 20.604630 105 89 99
6.814877 -6.220289 19.724552 103 86 111
6.853645 -6.267363 19.821499 103 86 109
7.091303 4.477149 20.227835 132 110 129
7.167339 3.474983 20.404573 103 90 113
6.950312 -1.445211 19.881533 112 94 115
6.960149 -2.056999 19.912634 64 52 69
6.975132 -0.637206 19.902645 109 92 120
6.906332 -5.444584 19.760862 102 81 106
6.902200 -5.441588 19.749125 102 81 106
6.902200 -5.441588 19.749125 102 81 106
6.978261 -3.714148 19.901373 121 106 129
7.155305 2.414197 20.253687 59 53 76
7.188703 1.236133 20.344500 90 73 96
7.132786 2.475751 20.178261 74 66 89
7.297375 3.945261 20.463228 127 102 106
7.297375 3.945261 20.463228 127 102 106
7.295171 4.031067 20.438307 122 102 123
7.246598 3.277865 20.303541 137 111 124
7.341170 4.620221 20.510014 125 97 114
7.099071 -3.142896 19.977840 115 94 118
7.216210 -0.642710 20.076408 113 94 121
7.116457 -6.363773 19.912661 126 105 129
7.229558 -2.095401 20.105875 95 80 108
7.524700 5.532675 20.680037 133 106 111
7.142418 -6.296968 19.897560 88 74 102
7.470847 4.617155 20.516731 111 92 113
7.424910 2.318341 20.411108 112 99 123
7.264108 -2.985531 20.056986 107 88 113
7.264108 -2.985531 20.056986 107 88 113
7.410920 0.137841 20.332924 117 103 127
7.410920 0.137841 20.332924 117 103 127
7.602216 5.835389 20.711040 120 103 116
7.330095 -2.178000 20.110826 88 78 105
7.219465 -5.503664 19.894361 127 100 113
7.376086 -0.518270 20.177444 99 84 111
7.282653 -5.343574 20.024603 128 107 108
7.425998 -3.924982 20.287544 114 99 125
7.433015 -0.621201 20.200275 121 102 127
7.419614 -0.564428 20.165895 105 90 116
7.495715 0.154400 20.336472 104 87 114
7.592064 2.504314 20.516029 89 78 105
7.505853 0.015742 20.335665 118 101 126
7.337667 -5.512973 19.988861 100 79 90
7.745697 5.866664 20.723967 117 103 120
7.560070 0.090815 20.348272 107 88 113
7.560070 0.090815 20.348272 107 88 113
7.659539 1.222749 20.412870 84 74 101
7.582240 -0.685606 20.247679 99 86 110
7.726090 2.484745 20.540934 77 64 92
7.726090 2.484745 20.540934 77 64 92
7.519550 -5.655224 20.174007 119 99 118
7.832478 3.909438 20.671654 110 96 120
7.712544 1.110734 20.385962 112 101 132
7.868892 1.599119 20.729729 134 119 142
7.771543 1.404228 20.491234 91 80 103
7.771543 1.404228 20.491234 91 80 103
7.586127 -6.519380 20.167242 113 96 120
7.887040 4.694967 20.661621 113 96 123
7.771676 0.272925 20.358107 111 95 119
7.989277 5.569681 20.779253 128 100 104
7.715644 -2.276976 20.259268 96 82 114
7.873108 1.152734 20.498426 105 94 122
7.894847 0.229150 20.451345 108 91 114
7.902075 1.699814 20.446785 67 59 79
7.892934 0.292068 20.401432 105 92 114
8.137374 6.040986 20.843161 122 105 118
8.117290 5.922071 20.744780 123 107 121
8.111889 3.321247 20.744514 104 83 95
8.069075 2.281674 20.635019 94 85 114
8.120613 4.007555 20.692560 129 106 116
8.144817 5.778009 20.710909 114 95 112
8.158792 2.463602 20.750427 90 79 102
8.231017 3.342616 20.721813 123 97 105
8.212703 5.759775 20.619308 100 85 88
8.212703 5.759775 20.619308 100 85 88
8.321923 3.363131 20.733574 118 93 100
9.349192 7.296711 22.689396 78 72 66
8.501232 4.732218 20.820980 122 95 113
9.328493 7.907346 22.557346 109 96 87
8.501175 5.756402 20.770132 95 80 92
9.429680 7.473417 22.737883 105 85 80
9.446689 7.343990 22.660042 90 77 71
9.508844 7.245794 22.668816 75 73 67
8.634413 3.385880 20.837904 101 77 88
8.615259 5.804692 20.725540 116 103 115
8.642807 5.754340 20.783756 111 93 105
8.731004 5.624948 20.855345 138 110 112
9.515798 7.792436 22.489239 103 85 78
9.600073 7.416390 22.671904 104 85 79
8.717587 3.458592 20.796415 119 107 130
8.625144 -5.186806 20.711676 110 94 121
8.783146 5.695226 20.780222 127 104 108
8.804306 5.618477 20.734579 128 103 105
8.821329 5.800685 20.756939 112 95 106
9.967778 7.555377 22.948837 101 81 77
8.929508 0.899523 20.782322 108 91 113
9.011010 4.169499 20.882454 120 97 112
8.921534 -1.100735 20.768202 92 78 109
9.081018 4.832355 20.957815 119 102 122
8.969316 5.771176 20.625921 119 101 113
10.003642 7.508186 22.648369 98 85 82
10.003642 7.508186 22.648369 98 85 82
10.223699 8.278785 22.936510 106 92 88
9.429800 6.422393 21.332222 115 100 115
