ply
		format ascii 1.0
		element vertex 19886
		property float x
		property float y
		property float z
		property uchar blue
		property uchar green
		property uchar red
		end_header
-233.423972 -88.250297 1038.604164 46 37 28
-232.733369 -145.094526 1061.628914 123 114 72
-233.434892 -166.767013 1064.233589 24 19 19
-234.741116 -107.415664 1039.451790 102 94 58
-234.859371 -125.893247 1044.352150 33 27 23
-233.974099 -67.674518 1037.858582 110 93 58
-235.445404 -94.684047 1037.321663 39 32 27
-233.735132 -195.147061 1080.404568 166 152 100
-234.531665 -146.575785 1060.945702 29 23 19
-235.020638 -62.309545 1035.312271 109 114 78
-237.102318 -173.209357 1060.049629 21 18 17
-235.512280 -67.808706 1038.596344 85 71 48
-235.911894 -69.254696 1038.700962 255 254 253
-235.446644 -191.633546 1081.387424 144 129 86
-235.446644 -191.633546 1081.387424 144 129 86
-236.681747 -146.199143 1060.570526 101 94 62
-236.393952 -179.257786 1073.570633 52 45 31
-233.748078 -49.728733 1061.205292 138 142 114
-238.639045 -204.243112 1085.817814 149 130 71
-240.742469 -130.460393 1055.699730 58 54 39
-240.694976 -138.101292 1061.515045 140 135 81
-245.370150 -113.088536 1026.777554 254 255 255
-233.087397 19.507733 1058.252430 175 172 171
-240.831780 -190.127420 1081.764698 57 49 34
-232.224870 -20.763311 1081.777763 107 107 98
-241.623116 -204.700708 1085.485649 125 115 72
-246.959853 -117.454481 1028.492355 38 32 29
-242.621064 -201.540947 1086.231041 172 162 110
-243.436837 -137.777472 1062.357521 41 34 32
-243.377829 -167.335010 1075.609016 164 160 99
-244.801021 -127.983415 1056.163692 48 48 37
-246.560264 -177.098477 1074.164581 81 73 45
-246.560264 -177.098477 1074.164581 81 73 45
-247.830462 -118.711233 1054.088402 75 76 55
-247.837615 -158.761525 1070.973396 65 68 56
-249.785638 -128.092325 1054.672623 15 11 12
-249.680328 -127.565157 1055.434036 15 11 12
-249.461269 -180.426359 1074.036026 142 133 79
-249.459672 -196.565652 1081.335258 168 152 95
-248.403049 -137.531126 1068.726444 150 145 99
-248.870659 -162.812579 1075.383091 92 89 69
-248.870659 -162.812579 1075.383091 92 89 69
-241.400290 17.616405 1066.791725 175 172 168
-251.170492 -141.995108 1065.261936 22 21 18
-250.660419 -123.070514 1065.156174 136 123 120
-251.963401 -139.850152 1064.960575 125 126 82
-252.065086 -149.496377 1070.018291 81 100 99
-252.065086 -149.496377 1070.018291 81 100 99
-243.019724 7.382569 1072.467804 106 108 99
-252.699018 -149.622536 1070.909500 116 127 92
-261.247826 -243.537378 1055.344486 177 164 97
-247.076988 -48.757336 1076.618862 93 88 70
-258.235407 -218.131161 1072.793865 62 55 22
-245.059657 12.617487 1076.207924 175 170 171
-264.005733 -244.204044 1058.218575 151 137 62
-244.383335 -2.273239 1085.492992 161 156 136
-258.448195 -205.366850 1079.620266 54 50 33
-258.448195 -205.366850 1079.620266 54 50 33
-236.464000 144.494689 1084.126377 196 196 194
-257.657266 -175.437689 1075.026226 93 92 71
-245.702720 18.511748 1079.099178 162 163 167
-242.946887 78.337020 1074.451923 192 186 187
-245.745087 22.225279 1078.852177 111 109 109
-244.664788 55.197722 1075.106525 195 191 191
-246.097207 1.424444 1086.199856 59 64 63
-245.750856 11.714506 1086.663055 154 155 154
-246.179795 13.048346 1085.017204 57 62 73
-239.315653 139.333045 1083.282948 116 116 114
-246.734333 4.679624 1088.025093 166 164 164
-246.705842 4.822142 1088.206387 166 164 164
-259.391832 -143.714428 1070.727921 28 24 21
-245.289588 73.812860 1076.130772 87 95 107
-262.765551 -192.512929 1074.322510 166 152 97
-263.745713 -203.783512 1076.441860 41 33 32
-248.565531 35.164547 1079.052067 78 81 91
-248.378062 8.410460 1088.805771 67 74 75
-248.378062 8.410460 1088.805771 67 74 75
-268.058014 -112.642515 1027.696419 25 21 19
-264.211416 -201.981425 1077.018166 127 122 87
-267.147255 -219.512129 1069.277000 162 158 105
-264.874148 -192.832339 1072.387314 25 21 18
-262.074995 -144.654512 1072.965050 84 74 41
-262.299323 -134.383881 1071.877193 180 164 97
-247.589350 68.842888 1081.337357 122 124 130
-250.111270 7.224997 1089.280033 26 26 29
-250.111270 7.224997 1089.280033 26 26 29
-247.790480 77.462757 1078.472042 43 54 69
-247.790480 77.462757 1078.472042 43 54 69
-271.466327 -244.128728 1062.158585 142 125 68
-248.276067 73.281962 1079.034901 54 62 70
-248.276067 73.281962 1079.034901 54 62 70
-264.061522 -137.429070 1068.188667 58 47 41
-267.332458 -211.665034 1075.623798 182 176 110
-250.979042 8.353498 1089.268875 144 144 137
-251.259995 23.299697 1083.512497 140 147 153
-273.852682 -237.471366 1055.922985 29 25 19
-263.988662 -130.977857 1071.751404 63 53 40
-264.992356 -147.310781 1072.425938 183 171 109
-263.755989 -124.264920 1071.184731 177 162 106
-254.304647 10.948207 1075.390720 70 73 82
-263.576961 -120.353758 1071.845627 117 118 83
-268.034649 -201.526737 1076.521111 146 144 77
-267.870545 -200.685740 1077.432728 146 144 77
-250.270987 82.058865 1076.691341 77 90 115
-250.234842 74.165332 1079.808617 130 133 143
-249.392390 93.561989 1078.626633 177 177 180
-249.392390 93.561989 1078.626633 177 177 180
-272.333312 -220.228171 1066.308689 21 16 18
-266.607380 -140.061796 1070.738125 118 107 58
-250.774407 85.185474 1077.449894 97 106 121
-250.774407 85.185474 1077.449894 97 106 121
-252.495480 -16.668557 1102.944088 109 108 108
-252.770090 49.497312 1082.104206 153 154 157
-252.665734 51.153278 1082.257557 92 96 102
-254.066610 -9.289274 1095.290089 99 99 74
-254.928708 26.804253 1081.502056 31 35 40
-252.328634 74.712396 1078.783417 41 45 53
-254.163718 -0.055969 1095.546150 159 156 153
-271.176863 -200.723767 1076.686287 152 141 80
-253.651857 50.257599 1082.313633 77 80 87
-255.563045 19.228135 1083.251572 55 59 67
-253.878260 52.828407 1080.760384 170 172 181
-253.712559 30.688801 1089.829826 31 35 40
-253.723669 57.016575 1081.935883 65 70 82
-253.202009 78.835124 1077.360821 159 159 162
-276.160645 -223.572683 1063.412476 143 132 67
-255.222249 -1.867937 1095.154762 147 143 117
-255.222249 -1.867937 1095.154762 147 143 117
-254.566932 -13.915117 1102.560616 164 160 159
-268.601322 -121.146011 1068.466473 171 166 116
-254.588795 49.811050 1082.050991 164 164 168
-260.997391 -47.861871 1082.507515 157 151 80
-255.488706 7.508399 1091.687775 58 60 61
-254.694462 -15.138015 1103.398991 153 148 143
-254.694462 -15.138015 1103.398991 153 148 143
-254.695749 -15.240063 1103.463078 153 148 143
-269.563079 -129.163432 1067.058563 42 36 26
-261.364174 -47.001439 1081.588364 131 119 60
-255.334139 50.081271 1080.364418 161 162 169
-256.655216 35.411042 1079.079151 131 137 149
-253.900385 69.594681 1081.656075 157 158 162
-256.934094 34.013569 1078.931618 49 58 71
-254.911184 60.631120 1080.479908 74 80 91
-256.965733 35.609537 1079.280663 138 143 154
-271.390271 -130.473077 1063.635826 152 151 98
-256.609511 -1.310187 1094.283390 162 162 159
-256.892991 42.506638 1078.489494 118 132 148
-273.444510 -169.184530 1068.224621 89 77 54
-254.817510 72.032964 1081.667614 78 82 94
-258.622861 22.514482 1080.270004 56 58 68
-249.833417 141.731215 1085.251236 142 144 142
-250.154495 137.368357 1086.266613 166 164 162
-257.957673 45.748261 1078.491879 110 118 130
-257.961631 45.645592 1078.512383 110 118 130
-256.819510 -20.082049 1108.047581 39 40 47
-272.211504 -117.048776 1065.652657 51 43 31
-272.211504 -117.048776 1065.652657 51 43 31
-259.221148 13.578498 1086.792469 41 45 51
-259.221148 13.578498 1086.792469 41 45 51
-259.198451 9.898528 1090.538025 40 43 49
-251.897240 138.148713 1084.407711 168 165 160
-288.099003 -260.466862 1041.468811 255 255 255
-276.600623 -161.061978 1064.620876 117 118 85
-261.009455 15.948793 1082.059193 71 76 85
-277.239609 -164.588702 1063.665867 111 110 86
-259.209967 -18.680699 1102.969933 123 123 123
-260.829878 -0.050971 1090.159607 41 43 44
-277.447987 -158.671129 1064.188576 140 134 97
-281.402993 -211.198378 1065.026283 184 176 121
-279.024005 -162.710059 1062.944889 56 50 35
-261.894941 -15.001769 1097.140694 154 152 138
-261.713243 -18.063854 1101.510620 130 130 128
-278.667736 -147.187448 1063.722515 76 75 61
-263.681030 4.997475 1085.661888 27 32 34
-263.375759 1.923421 1088.411617 46 52 57
-282.572651 -204.631472 1066.306686 126 113 62
-279.406047 -150.037694 1065.833092 104 102 86
-277.722740 -119.038975 1063.976383 61 48 39
-255.631018 136.559057 1084.752464 109 110 111
-284.112906 -207.322335 1065.374088 200 190 135
-267.875814 17.773603 1067.382717 178 176 174
-267.575693 16.553566 1069.261456 182 178 178
-321.458054 -102.786684 899.624920 82 100 100
-267.874956 19.841507 1067.420101 181 177 177
-281.877565 -76.333898 1034.591579 255 255 255
-281.877565 -76.333898 1034.591579 255 255 255
-266.468263 -0.566085 1086.078262 130 129 107
-267.192602 0.194005 1084.884644 42 43 39
-267.600131 0.890364 1083.174801 117 121 125
-283.904028 -193.437898 1071.479607 180 168 102
-281.748104 -125.401139 1059.544659 46 40 31
-285.338116 -197.829485 1069.635963 176 166 99
-266.601682 -17.066453 1098.171234 116 121 114
-286.242843 -190.259588 1064.808464 100 93 56
-286.242843 -190.259588 1064.808464 100 93 56
-280.998969 -115.094447 1064.693737 162 144 81
-334.977317 -139.643228 840.270329 58 71 82
-299.139905 -133.306301 987.472916 91 85 64
-283.982444 -127.886820 1057.589626 80 77 65
-289.643908 -76.965666 1014.046383 71 72 73
-286.119819 -157.278728 1059.862137 95 92 74
-286.072421 -149.196517 1058.873367 89 91 77
-286.072421 -149.196517 1058.873367 89 91 77
-286.874080 -138.845217 1057.682705 32 26 25
-272.022462 1.766952 1079.253578 61 65 42
-289.914846 -194.342184 1065.695381 164 143 74
-287.438226 -84.835505 1042.015076 31 23 23
-275.975537 14.328723 1063.903999 161 149 81
-293.136334 -182.754529 1051.893330 34 30 29
-272.208428 -19.207719 1094.308376 34 40 40
-272.633076 -17.348228 1092.187309 93 98 96
-290.231252 -94.652140 1037.752342 127 108 60
-290.231252 -94.652140 1037.752342 127 108 60
-288.820577 -139.792550 1059.761715 64 51 37
-291.467929 -187.187672 1064.102936 44 34 24
-274.736571 -0.687604 1078.220940 131 129 91
-273.890305 -11.951841 1087.427521 149 149 138
-289.488196 -87.714398 1042.345428 87 98 79
-288.917732 -70.482981 1039.396763 32 25 25
-300.570130 -124.883842 1006.520176 47 44 39
-289.867640 -86.054951 1042.313194 99 104 78
-289.241672 -118.086684 1060.041332 107 116 100
-292.291784 -92.952651 1038.376713 100 93 53
-279.245400 5.046427 1065.216351 57 62 47
-289.270425 -114.469266 1060.470867 163 160 111
-289.270425 -114.469266 1060.470867 163 160 111
-206.519794 92.027950 1370.156193 255 255 255
-278.797793 1.031780 1071.018982 71 76 46
-291.132665 -66.814262 1038.291073 106 97 63
-302.687168 -226.068044 1040.603828 248 249 252
-302.687168 -226.068044 1040.603828 248 249 252
-277.615380 -13.842046 1083.455753 118 124 118
-291.837001 -76.151186 1040.613174 106 102 78
-291.837001 -76.151186 1040.613174 106 102 78
-289.098477 -107.526720 1064.937019 119 106 68
-292.357111 -70.284879 1038.070297 19 17 16
-292.190146 -73.991698 1040.206051 118 108 78
-292.190146 -73.991698 1040.206051 118 108 78
-292.317104 -67.748201 1037.562847 34 27 25
-296.098304 -168.781829 1056.598949 94 87 77
-296.009254 -182.513738 1062.317944 20 16 16
-303.601432 -226.817584 1043.724442 185 161 91
-293.210459 -76.012027 1040.095329 39 34 31
-280.550241 -8.585781 1076.268101 58 61 42
-280.550241 -8.585781 1076.268101 58 61 42
-294.423795 -136.097062 1057.782650 117 101 61
-295.083642 -90.034151 1040.235806 22 19 16
-294.451833 -120.100391 1055.756187 29 31 31
-305.342770 -222.941637 1042.398643 255 254 255
-296.303248 -149.539912 1058.049107 73 63 42
-296.847534 -152.184153 1057.444000 167 153 104
-295.305896 -130.665731 1057.836914 99 83 57
-304.497027 -110.121942 1015.304661 255 255 255
-307.115340 -221.260452 1043.358135 106 87 56
-308.774662 -227.080607 1041.335964 173 151 83
-293.618846 -103.095937 1066.335297 147 131 80
-299.945712 -74.693120 1034.448910 35 35 36
-302.698445 -90.657669 1029.639149 133 138 122
-305.396175 -179.425728 1051.005936 183 179 147
-298.915315 -112.500918 1057.032776 55 47 38
-299.235201 -111.039269 1056.704330 142 149 123
-310.023475 -114.894843 1016.084862 28 21 21
-299.842787 -106.653643 1058.416939 19 18 17
-291.012907 -1.618014 1061.255646 178 156 81
-302.611041 -56.917936 1033.169365 53 53 47
-309.039927 -95.487273 1023.975086 53 49 42
-304.149008 -72.027290 1039.144611 41 36 36
-304.073691 -59.232998 1036.968899 63 60 48
-308.785748 -118.505347 1039.671707 138 131 84
-307.897449 -120.373523 1044.646931 46 40 30
-305.821490 -54.820049 1032.555389 140 139 106
-300.656533 -37.845749 1052.861786 101 139 141
-296.784067 0.288009 1058.737278 173 158 83
-307.795763 -57.398289 1032.360077 146 136 97
-291.824698 133.863306 1034.747982 179 178 173
-310.410714 -85.796607 1035.657120 68 63 59
-312.398744 -46.003431 1014.052391 31 39 48
-312.024093 -87.844235 1036.097050 255 253 254
-317.527103 -66.165888 1016.972351 152 146 96
-306.610441 18.712747 1033.984661 168 155 70
-317.451024 -52.748597 1024.774456 254 254 254
-301.377344 132.887900 1026.368332 162 164 154
-308.376288 56.687254 1028.915405 190 181 138
-314.209962 -34.370881 1038.799381 121 151 149
-308.289266 -9.470395 1055.802345 81 97 95
-313.783932 10.342578 1031.711292 92 87 27
-312.296081 42.722297 1027.990532 151 148 72
-314.163566 29.930514 1029.675388 186 176 142
-315.193391 3.903577 1035.257626 116 114 54
-314.205098 34.380978 1028.751087 178 173 127
-314.166427 40.938309 1027.677155 189 183 158
-316.950941 -0.000330 1039.085293 165 151 85
-320.642161 3.458659 1035.892773 69 60 21
-321.273232 17.603639 1028.617477 27 28 34
-321.379638 19.572896 1027.984142 22 19 22
-322.603369 28.296381 1023.490334 253 254 254
-322.495699 18.192245 1027.681732 114 121 127
-323.985076 20.433003 1023.133659 141 146 148
-324.058437 18.720420 1024.155521 54 56 62
-318.570590 99.140251 1020.572472 69 76 86
-324.952936 17.882167 1025.458717 57 58 65
-317.571115 122.419465 1018.112659 156 156 157
-319.316888 103.049278 1020.368576 157 158 160
-319.316888 103.049278 1020.368576 157 158 160
-326.683760 15.413627 1024.788189 48 41 37
-321.751356 105.003643 1019.881725 158 161 162
-321.947432 111.789346 1018.961430 61 67 73
-330.796170 12.102593 1024.985600 253 254 253
-322.866082 111.357129 1019.422245 134 140 145
-322.866082 111.357129 1019.422245 134 140 145
-322.877955 111.170912 1019.661999 134 140 145
-332.567906 -4.616199 1025.679398 255 255 253
-333.320713 5.226796 1024.714088 254 254 253
-333.169484 5.590732 1025.347042 254 254 253
-323.840618 123.469794 1018.825722 157 157 155
-326.887584 109.813654 1019.750786 77 82 66
-337.134957 -10.312517 1027.943611 128 137 129
-335.644722 -6.987994 1034.150505 128 137 129
-335.390282 -6.438523 1035.218430 128 137 129
-398.255897 12.208836 881.900215 85 88 99
-359.899902 73.289770 1001.056004 175 170 172
-361.757040 71.438426 1004.376793 73 97 127
-365.753508 101.276374 995.569515 95 94 100
-366.260076 75.996357 1004.427242 35 32 37
-366.260076 75.996357 1004.427242 35 32 37
-364.630461 104.693508 999.271297 121 117 120
-364.721537 109.912229 998.532295 181 176 177
-365.502429 63.566560 1019.139957 89 90 103
-369.822598 112.735975 996.816444 106 98 98
-369.822598 112.735975 996.816444 106 98 98
-370.167804 123.144639 994.253731 107 103 105
-371.181536 127.851951 997.493649 55 53 43
-372.474742 113.596523 1006.163120 49 45 40
-372.690058 129.248857 1003.009319 85 71 64
-173.018122 119.518435 1006.592178 46 47 29
-178.368938 -21.554656 1016.459370 136 135 98
-182.700682 57.961518 1007.465935 254 254 254
-183.012342 -25.034219 1025.001144 129 127 119
-184.768915 57.493436 1011.807251 132 130 130
-186.509025 104.350078 1010.480595 117 126 135
-187.327695 111.300886 1010.164642 167 166 167
-188.548291 30.756673 1012.477112 139 140 92
-189.322984 5.371347 1018.746471 79 87 100
-191.051364 7.882855 1019.225788 117 120 130
-191.051364 7.882855 1019.225788 117 120 130
-191.844499 -4.513489 1024.807453 138 135 103
-191.844499 -4.513489 1024.807453 138 135 103
-192.130637 9.746617 1020.101261 34 35 42
-196.963120 -1.531509 1023.520184 71 73 74
-201.585627 -50.103182 1026.969337 255 255 254
-202.953100 -53.997535 1026.685810 254 254 254
-202.953100 -53.997535 1026.685810 254 254 254
-203.050685 -53.509009 1027.685833 254 254 254
-210.046387 3.297090 1035.378551 115 117 119
-211.319375 -64.544535 1034.103298 48 42 27
-212.491441 7.304981 1036.355019 182 175 175
-213.650894 -58.864117 1037.079811 111 99 54
-214.955401 0.229344 1014.506340 115 113 119
-212.785769 -1.923932 1044.484043 150 145 142
-212.785769 -1.923932 1044.484043 150 145 142
-214.715743 -61.915988 1037.926769 166 145 77
-218.714166 -47.184652 1002.090931 103 105 99
-215.878248 4.211219 1042.140961 119 119 105
-216.104603 85.267437 1035.650730 156 149 152
-218.279672 -50.972360 1045.694637 131 131 91
-220.107532 -67.002100 1039.802265 63 63 35
-220.107532 -67.002100 1039.802265 63 63 35
-218.003082 87.975425 1037.993908 143 136 138
-222.478437 -118.929231 1030.468369 103 89 50
-218.692541 20.316339 1060.515499 115 113 119
-223.036146 -65.963775 1040.090275 148 132 82
-223.036146 -65.963775 1040.090275 148 132 82
-223.343635 -70.771289 1040.235615 168 146 80
-223.777270 -77.569020 1040.506840 165 147 86
-223.725295 -74.573201 1040.752029 166 151 82
-221.839857 8.949856 1047.289276 182 175 168
-222.237086 12.453294 1046.581268 108 109 107
-223.499990 -48.670876 1051.882648 101 99 80
-227.215552 -75.968617 1040.462780 98 95 44
-227.070093 -176.116145 1062.337589 255 255 255
-229.019284 -114.173937 1038.475990 54 44 32
-227.514195 -153.785646 1065.456867 161 146 85
-230.151486 -92.707348 1031.657600 111 98 55
-229.725528 -151.530135 1062.202644 83 86 72
-231.884003 -134.374201 1041.810417 54 49 38
-231.050539 -80.133277 1039.871407 45 37 30
-232.190490 -123.514235 1041.860867 94 89 70
-233.353543 -87.784642 1039.198399 39 32 26
-234.881759 -128.051841 1043.839169 79 69 48
-235.785437 -68.590117 1039.797783 254 254 254
-235.654807 17.039771 1059.524059 174 171 168
-234.610176 -20.659216 1083.881760 105 106 98
-238.153315 15.431468 1064.797115 104 101 67
-242.088747 -195.332825 1082.404518 100 90 44
-243.483949 -167.872965 1074.251556 154 145 97
-240.178466 14.582305 1065.832901 83 87 52
-245.353198 -159.047079 1067.206478 19 14 15
-246.301365 -147.148097 1067.780972 85 81 67
-246.657848 -177.594757 1072.966290 83 71 47
-247.028899 -157.899046 1066.720867 18 17 14
-246.649265 -160.760987 1072.459888 103 99 65
-241.235137 -18.200675 1088.885689 76 78 78
-244.604921 -48.875347 1073.646736 119 120 86
-241.648889 -21.628988 1093.180656 40 40 41
-248.131633 -151.153982 1069.890308 120 116 78
-248.357630 -146.344316 1068.388081 58 55 47
-248.357630 -146.344316 1068.388081 58 55 47
-249.066114 -208.379436 1079.869175 185 177 114
-248.850513 -162.677312 1075.017071 116 117 99
-249.953151 -161.648893 1075.649071 30 32 37
-251.955414 -148.918080 1070.514107 74 97 98
-252.211690 -144.098568 1067.692661 64 75 66
-245.677733 -0.532866 1086.574173 61 58 59
-245.677733 -0.532866 1086.574173 61 58 59
-245.677733 -0.532866 1086.574173 61 58 59
-252.098823 -126.984656 1065.630531 25 20 21
-254.139423 -203.500676 1077.349281 163 153 91
-253.161526 -172.611225 1079.102802 125 117 86
-254.040623 -150.311804 1070.730019 35 30 27
-254.084134 -127.247405 1066.885948 81 90 75
-246.460795 73.609620 1077.882004 130 133 144
-247.855258 29.661039 1078.452396 77 81 93
-247.855258 29.661039 1078.452396 77 81 93
-248.361683 35.941327 1076.773643 48 51 62
-251.431966 -45.702392 1081.810951 167 164 159
-248.091722 67.029607 1079.859924 163 161 165
-249.983668 20.294785 1080.787468 27 29 40
-249.622893 5.047270 1089.770031 140 140 141
-246.010542 136.756241 1086.169910 167 166 166
-246.010542 136.756241 1086.169910 167 166 166
-246.010542 136.756241 1086.169910 167 166 166
-250.181341 11.991157 1087.022495 43 43 52
-250.074673 49.176106 1081.060028 124 122 129
-264.508677 -120.885289 1011.216164 255 255 255
-238.086891 -10.709000 1227.466202 31 26 24
-250.029421 57.246220 1081.970024 179 175 179
-250.029421 57.246220 1081.970024 179 175 179
-258.934522 -180.431247 1075.342655 129 124 96
-250.195098 82.253009 1077.230263 77 90 112
-250.820804 48.828876 1081.934357 169 168 170
-250.237274 74.115938 1079.799461 130 135 146
-250.675607 72.764039 1080.847549 95 102 110
-250.756621 85.190028 1077.580070 94 106 122
-251.210117 73.290080 1077.994061 33 35 40
-259.268117 -125.616312 1070.590687 56 48 36
-251.468968 -20.834544 1104.625320 32 34 38
-253.921509 12.311397 1077.994347 61 69 79
-251.625252 78.850722 1078.166294 42 45 64
-252.114367 82.694054 1077.475739 138 144 158
-249.086881 140.826750 1085.622978 59 63 79
-252.676940 61.757445 1081.444454 165 168 176
-252.676940 61.757445 1081.444454 165 168 176
-261.222410 -136.013198 1071.177864 178 162 89
-254.516244 18.470816 1084.291649 133 141 149
-253.703070 50.037014 1082.012367 72 75 81
-253.513312 58.662271 1081.917667 156 160 167
-253.705692 57.060403 1082.050514 65 69 82
-262.374330 -145.959687 1070.827484 93 75 48
-267.315054 -112.073398 1028.206253 31 26 22
-253.900909 -18.996021 1105.477238 136 136 136
-264.335179 -202.613235 1075.944805 134 130 92
-262.313390 -120.618224 1070.350838 14 11 12
-254.620385 55.968696 1081.279182 162 167 177
-254.620385 55.968696 1081.279182 162 167 177
-255.681229 35.112303 1080.176926 154 156 166
-255.681229 35.112303 1080.176926 154 156 166
-254.561663 -10.743251 1101.601791 38 40 38
-256.592298 21.077633 1081.569862 43 45 55
-256.781530 2.774383 1092.160797 114 115 118
-257.963562 25.350159 1079.757404 102 105 115
-257.812285 15.387754 1084.720993 99 102 106
-258.147311 6.354325 1090.483093 125 126 130
-258.334017 0.534298 1091.875362 180 176 175
-266.723084 -142.073023 1071.020889 125 115 58
-266.672182 -136.183214 1070.660973 146 133 72
-259.529829 27.576923 1080.104160 87 90 104
-268.836904 -200.578356 1075.432682 158 153 87
-260.229278 16.935325 1082.036686 132 138 147
-267.066646 -55.237365 1052.980137 181 175 143
-259.221864 -18.634796 1102.722073 118 117 118
-259.743476 -15.362573 1098.698902 150 147 139
-272.650361 -209.230256 1072.800636 143 132 70
-272.190905 -201.657367 1075.630951 167 149 83
-274.812889 -223.965955 1063.840485 142 131 69
-270.749903 -120.896626 1064.674091 170 161 113
-279.982615 -260.565543 1047.146702 41 35 33
-279.982615 -260.565543 1047.146702 41 35 33
-279.972291 -260.308051 1047.358322 41 35 33
-272.130084 -116.780019 1066.248512 51 43 38
-274.789143 -115.999484 1064.746284 65 59 43
-277.252030 -164.743519 1063.783550 108 109 88
-277.990818 -158.235490 1062.932301 55 50 41
-278.044105 -151.474893 1065.610504 39 36 30
-279.054451 -162.935996 1062.956524 53 47 31
-279.035330 -164.034045 1063.424397 127 122 90
-277.807069 -127.008951 1063.010120 31 24 19
-278.696060 -147.419548 1063.752747 85 84 72
-278.925419 -152.803349 1065.010452 136 133 103
-269.458365 116.040194 1052.039528 128 122 109
-277.796865 -120.484686 1064.621449 51 40 30
-278.548074 -113.257813 1060.498333 15 11 12
-282.203293 -205.040193 1068.360233 112 97 51
-273.551345 -14.268117 1086.747074 146 146 136
-283.533216 -61.643440 1035.175705 143 159 144
-285.037661 -171.918023 1062.529469 37 30 27
-287.078619 -209.297514 1062.637138 51 43 34
-286.626649 -190.350723 1064.542675 131 124 79
-278.459883 -1.091479 1074.024582 167 162 101
-279.015851 -17.656411 1085.478973 82 94 96
-289.971685 -144.652939 1059.953022 127 120 86
-289.494348 -124.712384 1059.756184 176 156 98
-291.196251 -79.930615 1040.289497 26 24 19
-291.756034 -76.061273 1041.419888 118 112 86
-292.790985 -86.245722 1039.708042 25 25 21
-292.109060 -73.925936 1041.031551 127 115 83
-294.252110 -189.539146 1065.471649 140 124 71
-294.673634 -161.081755 1058.666897 151 136 74
-295.280290 -93.084747 1038.089180 32 28 23
-300.851846 -220.354080 1040.791988 255 255 255
-295.792532 -158.829880 1058.416653 70 54 34
-296.445251 -188.189435 1063.933849 186 175 116
-285.809660 142.127931 1041.420460 77 84 80
-298.062944 -86.037970 1037.380314 148 151 109
-300.296497 -174.179256 1055.460072 119 118 83
-304.736567 -224.748683 1044.115162 95 75 51
-305.211997 -222.764850 1043.827152 252 252 251
-239.623952 148.916507 1337.715721 119 119 105
-292.399311 0.022774 1063.000870 195 182 129
-291.873527 140.297484 1038.111115 187 183 168
-302.456474 -32.956812 1040.464878 27 35 42
-309.032345 -147.253966 1041.338062 137 125 92
-305.958772 -81.249583 1039.959621 109 103 88
-305.722094 -54.492044 1033.143520 139 135 101
-299.559331 -14.640358 1065.081882 43 50 57
-299.645686 107.795393 1026.331902 124 116 80
-305.829382 -114.424860 1078.617859 137 125 92
-305.267954 -109.013414 1085.440731 137 125 92
-312.153149 -72.879857 1033.036137 82 74 50
-306.104279 -0.111361 1049.684906 170 165 93
-316.023207 -120.601499 1034.505749 255 255 255
-307.246590 0.036812 1048.838425 173 168 101
-314.002466 9.666523 1030.905151 94 85 34
-312.684727 55.433911 1025.072956 180 176 154
-314.715552 26.856658 1028.202343 181 171 125
-318.527126 -40.190756 1035.401917 83 97 108
-318.607354 -36.059958 1034.592438 96 130 144
-320.816374 2.885462 1035.338593 64 55 26
-317.016816 131.531250 1013.762474 68 77 84
-323.990822 27.106917 1019.117737 255 254 255
-319.855571 102.244067 1017.752552 159 160 161
-324.479890 24.964826 1020.991039 102 100 93
-320.793724 129.802644 1014.203930 74 79 80
-325.513315 14.625324 1028.136921 39 39 44
-327.371883 20.590782 1021.021652 255 255 255
-322.503638 111.043561 1016.269588 55 60 77
-327.423382 47.787532 1013.787460 255 255 255
-323.473859 110.557449 1016.485786 136 140 150
-326.812434 70.159572 1015.207767 255 255 255
-325.024676 101.613998 1017.106533 124 127 126
-325.024676 101.613998 1017.106533 124 127 126
-325.486159 109.677505 1016.502762 162 163 169
-326.861358 102.083647 1016.950417 169 166 160
-326.861358 102.083647 1016.950417 169 166 160
-334.694481 0.604899 1024.251270 254 254 254
-328.575397 133.130348 1013.027096 159 157 116
-329.586434 133.747518 1013.007164 37 39 37
-329.586434 133.747518 1013.007164 37 39 37
-175.818157 -26.444775 1020.206928 104 100 104
-175.818157 -26.444775 1020.206928 104 100 104
-174.592745 91.530669 1012.629986 255 255 255
-174.596202 94.207764 1012.572002 140 140 132
-178.813517 -23.406589 1019.599915 90 91 87
-180.413377 62.036645 999.251461 255 255 254
-188.268852 -14.294989 1047.745895 130 128 122
-183.620048 46.599546 1010.292244 255 255 255
-183.391917 66.793513 1011.800861 255 255 254
-185.164475 39.815366 1012.253380 255 255 255
-187.241375 2.648549 1020.067883 176 175 178
-185.102916 63.990909 1013.600159 136 133 131
-187.412167 38.618359 1017.794514 255 255 255
-185.120618 88.795823 1012.750530 123 127 130
-189.067471 -0.205837 1025.232124 137 139 135
-185.385013 89.939982 1014.480019 118 122 126
-185.385013 89.939982 1014.480019 118 122 126
-192.355168 5.662372 1023.116207 94 100 113
-192.541683 4.607774 1023.749733 57 59 67
-195.198345 -21.307975 1038.106537 79 83 78
-192.261899 28.561598 1021.019268 99 98 89
-192.261899 28.561598 1021.019268 99 98 89
-195.277417 -0.226818 1024.375820 130 128 129
-200.568962 -9.838887 1061.632633 79 83 78
-198.297608 -3.601430 1028.759289 137 133 130
-200.712299 -5.333640 1033.902836 91 93 94
-203.301334 -20.639601 1048.923683 54 60 50
-203.301334 -20.639601 1048.923683 54 60 50
-200.404739 2.485060 1026.259613 104 105 105
-203.276587 -52.532911 1029.785061 251 251 249
-207.920623 -48.019156 1035.871029 147 150 88
-205.740690 10.639799 1030.077553 104 104 104
-205.740690 10.639799 1030.077553 104 104 104
-210.056901 -58.312601 1038.527775 148 131 75
-210.206628 -43.523097 1039.564323 71 64 41
-210.758257 -37.694725 1043.058872 96 89 61
-210.551858 -37.295517 1040.344429 142 143 129
-212.105083 -11.932582 1049.018478 62 58 34
-211.450553 11.296207 1035.863781 110 111 113
-213.720131 -3.924255 1048.674583 99 101 102
-217.224669 -80.988246 1037.274170 255 255 255
-217.267370 -75.190192 1037.724400 96 86 69
-217.262650 -63.624948 1039.563751 149 130 70
-217.262650 -63.624948 1039.563751 149 130 70
-218.085861 -68.495375 1039.756203 58 46 29
-218.522143 -77.009559 1037.087154 254 254 254
-219.115901 -69.312716 1039.002419 174 158 97
-219.115901 -69.312716 1039.002419 174 158 97
-220.156837 -66.807634 1040.232944 55 50 31
-220.469308 -65.136504 1040.244675 130 117 68
-222.282600 -125.272739 1032.469273 255 255 255
-221.973825 -22.164638 1068.861580 86 94 84
-221.771121 -93.805671 1037.015915 172 156 98
-221.310663 -71.420819 1040.295982 178 159 95
-222.258902 -114.989495 1031.046486 137 121 86
-219.199395 5.310035 1047.567368 126 125 118
-221.562243 -49.565145 1049.249554 125 129 97
-222.275996 -77.601147 1040.419483 181 166 98
-223.125911 -81.562066 1040.724087 47 38 34
-223.552442 -87.332690 1041.087723 81 66 48
-223.271203 -75.929755 1040.820503 100 88 52
-223.419070 -70.365638 1041.049671 164 146 82
-223.741674 -74.619901 1040.764523 171 152 86
-225.193095 -121.341622 1034.495258 60 53 36
-229.281378 -152.491975 1063.547611 123 111 70
-229.866958 -168.388391 1060.216236 87 80 49
-226.906037 -137.851226 1041.212082 255 255 255
-222.064376 10.178763 1050.111198 181 175 170
-224.132419 -11.114183 1061.610889 47 43 23
-218.122721 88.105643 1039.185047 148 140 142
-225.071573 -73.233116 1040.933704 99 86 40
-227.707362 -124.597085 1042.720318 42 37 36
-233.523989 -192.398143 1076.005936 114 103 64
-227.193213 -110.120726 1039.599037 69 58 50
-225.613570 -58.903569 1042.281818 53 44 31
-227.835965 -107.562709 1040.216827 135 123 84
-235.404611 -200.776649 1080.269146 138 120 76
-232.586336 -174.566841 1059.274769 254 254 249
-229.943848 -125.779581 1041.701031 33 27 24
-236.511707 -195.734107 1081.044388 96 88 52
-228.266907 -65.738177 1041.025162 162 141 80
-229.580283 -18.675287 1076.736546 51 52 52
-236.787581 -185.109222 1075.605488 66 59 40
-238.513064 -204.923582 1082.129288 151 134 75
-232.373929 -134.071386 1043.405724 39 32 22
-229.855943 -78.729206 1040.629959 153 139 80
-239.181900 -209.355593 1079.735470 255 254 254
-236.958456 -168.627810 1070.037651 58 52 37
-238.892555 -198.003471 1077.760315 138 121 68
-229.654622 -61.494076 1024.881840 102 117 57
-238.152361 -171.539843 1072.069550 103 99 69
-239.455342 -183.350658 1078.208733 53 44 33
-232.891917 -98.698121 1042.000484 111 103 70
-232.218695 -79.729986 1036.937046 89 78 61
-234.001589 -104.975390 1041.248798 70 54 34
-232.422209 -76.376975 1037.254715 54 48 37
-233.418941 -87.516850 1039.907455 36 32 29
-231.145811 6.174304 1059.520817 124 121 112
-242.543173 -201.819062 1083.360863 176 168 110
-233.818293 -79.694921 1034.914970 53 44 34
-232.689953 5.755949 1062.226200 162 158 133
-244.461751 -212.122750 1080.718994 255 255 255
-236.187625 -95.167756 1039.865017 85 83 66
-239.714909 -22.209194 1092.652416 153 153 135
-239.637518 -109.738731 1031.630707 41 32 37
-248.229170 -211.451888 1077.410412 162 151 90
-246.533155 -177.100813 1072.613049 84 74 44
-238.901091 0.357349 1078.942966 75 76 58
-249.073172 -212.344241 1075.643063 134 123 67
-246.564984 -160.104322 1072.501564 100 92 71
-245.308781 -140.488243 1067.019558 118 115 90
-241.190529 -107.467973 1029.194260 255 255 255
-241.190529 -107.467973 1029.194260 255 255 255
-242.644906 -112.680697 1029.861164 39 29 28
-245.993972 -124.597657 1064.628220 104 92 88
-248.278832 -152.227342 1070.614338 135 125 82
-248.323178 -145.534563 1068.936443 69 64 54
-250.020552 -166.228724 1076.415920 36 30 26
-243.185449 -1.164161 1084.195042 74 71 45
-252.904105 -236.485004 1055.643559 255 255 255
-250.324845 -162.827933 1071.361923 30 27 30
-244.902849 -112.790656 1030.817127 56 48 41
-249.111009 -135.643101 1068.610382 52 42 39
-249.885082 -139.449441 1065.833378 34 31 28
-249.885082 -139.449441 1065.833378 34 31 28
-252.559733 -179.347551 1073.107719 42 38 33
-237.780213 137.129700 1084.529114 126 123 119
-245.704699 -0.298266 1087.026787 66 63 62
-247.312331 -17.103246 1096.468258 64 63 62
-238.849902 137.008274 1084.915352 165 164 162
-251.959753 -145.448709 1069.655132 104 117 105
-255.897117 -210.518122 1076.138592 170 160 94
-251.825309 -138.826334 1065.307331 124 129 83
-255.702567 -200.692058 1076.010513 66 60 37
-255.702567 -200.692058 1076.010513 66 60 37
-255.584335 -195.445716 1076.207542 82 75 44
-242.495394 97.947973 1079.744625 130 131 141
-253.821540 -139.571428 1064.928532 66 87 96
-253.821540 -139.571428 1064.928532 66 87 96
-241.887426 137.609601 1086.138535 102 103 101
-247.985816 15.567678 1082.543278 119 125 140
-258.281970 -188.257205 1077.413845 167 150 103
-242.456198 140.790594 1085.887432 155 153 152
-246.806169 50.711930 1077.789879 92 97 110
-251.349854 1.456734 1092.931461 91 89 90
-249.214602 25.510427 1078.940296 107 108 117
-249.802852 18.960170 1081.231880 119 126 143
-249.802852 18.960170 1081.231880 119 126 143
-249.470425 25.364444 1079.796600 96 95 100
-246.760654 75.528473 1078.010559 125 128 140
-260.987091 -194.595802 1073.950100 140 127 74
-250.304079 28.036475 1079.681873 63 68 81
-248.185897 75.269121 1079.613781 40 43 52
-248.185897 75.269121 1079.613781 40 43 52
-248.473263 72.230899 1080.459595 24 26 37
-251.707077 16.621920 1084.041119 44 46 55
-262.701297 -201.210093 1074.206829 34 29 23
-255.339885 -44.506550 1083.610725 179 177 171
-250.750327 37.336528 1080.492783 174 175 175
-250.068569 52.263457 1080.477142 180 180 186
-250.751162 41.352952 1081.514931 97 98 107
-246.014524 137.144923 1086.672974 167 166 166
-263.505483 -197.138333 1073.208523 141 133 78
-264.213276 -202.058816 1075.748348 130 125 88
-253.561139 10.594130 1088.262653 107 109 111
-253.561139 10.594130 1088.262653 107 109 111
-254.557991 0.776077 1094.417381 82 80 82
-265.538335 -243.615294 1058.197498 140 124 60
-252.929473 20.859592 1084.083748 130 134 143
-249.090981 87.412858 1077.988338 127 133 146
-263.390517 -181.552207 1071.697903 34 27 24
-250.477409 72.112596 1081.859398 30 34 47
-265.571046 -212.184620 1075.239277 128 114 65
-253.109121 27.065331 1083.204269 29 30 42
-265.652752 -208.809566 1076.488113 196 188 130
-264.421678 -188.569093 1071.576881 78 72 56
-249.948144 84.506983 1077.786446 145 150 157
-254.184127 17.640874 1085.718918 49 53 61
-250.188589 82.355672 1077.272892 81 92 114
-261.298585 -126.452804 1071.785259 167 144 78
-261.298585 -126.452804 1071.785259 167 144 78
-254.524493 18.680604 1084.613895 122 129 134
-255.665636 6.331664 1091.868591 129 130 131
-266.959834 -225.496888 1062.981319 36 30 23
-250.763273 85.451859 1077.974224 85 96 110
-251.873302 71.229392 1082.974052 111 117 132
-251.873302 71.229392 1082.974052 111 117 132
-252.692747 58.104551 1081.047058 71 72 82
-252.692747 58.104551 1081.047058 71 72 82
-252.706456 62.144542 1082.259655 164 167 175
-263.451982 -140.695357 1071.452999 54 46 40
-255.067348 24.914606 1083.485317 42 43 52
-263.326859 -137.567115 1071.134949 51 44 35
-254.073811 41.923568 1082.071018 39 40 50
-255.121088 25.674689 1082.103634 156 158 159
-255.654049 17.908005 1083.116436 52 55 62
-249.090338 141.261876 1086.193562 36 39 52
-259.328175 -21.076317 1105.099106 173 175 176
-253.518653 58.807969 1082.140446 159 160 166
-259.182405 -18.628980 1102.290726 111 113 113
-264.552164 -146.018064 1071.600151 72 59 41
-252.640295 77.552426 1077.828979 37 41 53
-269.572616 -242.972636 1061.156368 118 101 52
-263.983345 -127.397549 1071.196842 61 50 46
-265.154290 -147.792542 1071.496010 182 173 109
-250.200820 137.635851 1086.611176 161 161 161
-253.360391 76.452696 1078.695869 99 109 123
-253.627753 75.040716 1079.269409 94 100 113
-254.885793 57.999194 1081.434059 162 164 171
-264.742184 -124.380839 1071.334553 68 57 43
-254.912519 60.651845 1080.854130 41 44 60
-257.813859 15.456259 1084.796906 110 115 117
-265.398717 -126.953888 1071.039581 194 182 118
-257.722235 23.642832 1080.963039 104 115 133
-257.521605 28.403828 1079.822636 55 62 76
-256.931949 36.890861 1077.810955 66 77 95
-255.338693 70.238942 1081.231499 158 161 165
-255.209160 74.596304 1080.848122 114 116 129
-267.401934 -161.889815 1054.665852 29 24 23
-266.655278 -135.930121 1070.832539 136 127 68
-266.422772 -124.215448 1074.245644 187 175 106
-271.395636 39.816266 1289.647770 255 255 255
-259.940577 8.390976 1090.719318 104 111 118
-258.435988 29.271847 1079.648685 136 137 144
-267.747831 -140.983522 1070.398045 188 178 117
-273.864532 -241.917491 1064.081573 139 122 68
-261.184978 5.802253 1089.815044 135 139 143
-261.287665 3.242290 1087.146950 28 29 32
-261.539507 10.349182 1086.916161 127 146 163
-261.544728 13.527963 1087.385368 121 140 162
-254.307199 140.186107 1085.348320 154 156 153
-254.379845 141.241407 1084.821892 94 97 91
-255.416775 129.722989 1086.490250 112 113 118
-258.382916 68.940043 1075.550175 194 189 190
-269.584036 -130.153048 1066.048813 43 37 34
-254.979992 139.170647 1084.784508 56 58 59
-255.015039 140.315640 1084.219646 149 148 146
-269.429803 -118.255103 1068.211174 51 42 31
-271.385193 -130.318058 1064.057827 155 153 108
-270.991278 -116.276443 1066.723442 118 118 97
-264.568758 8.965731 1075.472641 104 105 108
-274.619222 -166.587996 1066.374779 44 39 38
-277.763152 -205.803967 1070.493793 68 61 53
-264.674950 16.593416 1075.539780 165 165 166
-268.232822 -15.772632 1093.195057 89 90 81
-276.002479 -167.908227 1064.930916 92 92 78
-275.830460 -162.498748 1065.827751 53 47 45
-273.000884 -115.611339 1065.793800 159 151 102
-266.801643 3.311720 1082.952213 152 155 154
-269.405842 -75.171971 1036.846352 106 100 69
-267.301774 5.718277 1076.469326 65 68 36
-279.845190 -198.163009 1075.146770 187 178 113
-269.719338 -69.828135 1029.189014 171 172 152
-280.373812 -208.808994 1068.131161 175 161 94
-280.226803 -204.059911 1068.749332 87 69 40
-277.498770 -158.747804 1064.336872 136 134 99
-281.178498 -213.782692 1064.233017 53 45 39
-275.699568 -117.125404 1064.681911 164 152 100
-279.058552 -162.701416 1063.382053 55 48 37
-276.936197 -122.753763 1064.980316 95 81 56
-282.203841 -203.584242 1067.836189 127 112 64
-278.700757 -147.461629 1063.799667 85 81 68
-270.546842 5.950546 1077.587986 83 84 52
-283.974123 -206.998396 1066.303825 197 185 133
-278.229237 -116.024196 1064.948559 164 150 96
-273.282576 -15.719818 1089.435768 42 44 45
-284.941673 -212.582135 1062.373734 33 28 24
-279.551983 -125.496757 1061.952496 36 30 25
-284.130406 -190.477765 1070.388222 14 12 11
-273.996854 -12.128688 1087.381935 149 148 140
-275.377417 -18.618104 1091.693974 38 43 45
-286.924267 -206.144762 1061.972427 59 51 41
-288.011909 -207.414842 1061.628819 172 162 107
-278.589845 -77.519834 1029.752922 64 57 41
-289.394474 -206.819272 1059.976196 172 162 96
-274.926090 15.476891 1060.172939 93 90 51
-274.926090 15.476891 1060.172939 93 90 51
-283.856106 -111.547506 1065.635109 151 138 82
-284.770560 -125.499904 1059.403896 39 33 31
-285.274577 -126.862288 1059.278011 46 38 31
-281.267715 -73.338705 1030.725098 255 255 255
-285.563803 -111.800599 1066.871929 166 145 78
-277.185678 17.378561 1061.806870 102 93 41
-277.185678 17.378561 1061.806870 102 93 41
-277.991867 8.753951 1063.156986 79 77 41
-291.920805 -195.067441 1064.955044 139 121 64
-279.867625 -0.846065 1073.387623 181 174 113
-287.638569 -119.989860 1060.500050 67 56 45
-285.843754 -98.363316 1034.406281 29 22 21
-287.935853 -111.231411 1064.295006 28 26 18
-284.997678 -72.483528 1039.191246 253 254 254
-284.830856 -69.834614 1038.582897 68 57 47
-286.887693 -99.880427 1037.329197 254 255 253
-295.546484 -221.122479 1045.639133 65 57 50
-295.546484 -221.122479 1045.639133 65 57 50
-284.893847 -67.279649 1038.782692 245 245 245
-296.913552 -220.691681 1055.824661 146 140 108
-283.943582 -15.380208 1079.231644 41 46 51
-288.230920 -98.487735 1038.095856 51 45 37
-287.684464 -87.869442 1040.235519 31 26 26
-286.942482 -69.503647 1037.713528 38 32 32
-294.092226 -156.510079 1058.849621 30 24 24
-292.457104 -128.792894 1059.213543 24 19 19
-295.656419 -163.432848 1058.692837 62 51 42
-289.849257 -86.402524 1043.221188 103 107 88
-292.344952 -114.665699 1058.806324 24 22 22
-301.145101 -231.398106 1043.749523 145 133 65
-296.925783 -162.865078 1057.717705 167 150 105
-289.724755 -67.713249 1039.067554 26 21 20
-291.255975 -86.684191 1043.091488 44 38 35
-291.175938 -85.948694 1041.519928 108 107 85
-291.784763 -95.059967 1038.382912 44 40 25
-291.711187 -88.211983 1043.334389 35 30 27
-291.255450 -80.079621 1040.715694 31 29 27
-290.785623 -73.800802 1039.966583 27 23 24
-301.847029 -228.577995 1044.698143 193 177 111
-292.256904 -90.710580 1042.698669 104 99 76
-298.912859 -176.654911 1056.232643 169 166 115
-291.138601 -67.388052 1039.194202 123 116 86
-291.138601 -67.388052 1039.194202 123 116 86
-292.178512 -80.576682 1041.114140 125 122 97
-292.178512 -80.576682 1041.114140 125 122 97
-292.201018 -74.557209 1041.019249 123 116 83
-293.384981 -89.896435 1042.163181 98 102 80
-291.834354 -66.037697 1038.625336 116 108 75
-291.834354 -66.037697 1038.625336 116 108 75
-303.533101 -226.553893 1045.748806 185 164 100
-303.533101 -226.553893 1045.748806 185 164 100
-301.315856 -178.293681 1055.374622 76 67 58
-304.918242 -231.632757 1044.119263 255 255 254
-299.702764 -153.884041 1053.986645 27 22 21
-303.621173 -202.766991 1042.951775 82 66 52
-294.007468 -66.423678 1031.152725 80 75 43
-301.542425 -158.949625 1049.334717 125 120 86
-301.542425 -158.949625 1049.334717 125 120 86
-298.652864 -115.578938 1057.817745 60 47 37
-294.856668 -68.308020 1032.928085 74 69 41
-297.314692 -89.303768 1037.444115 26 20 19
-296.336079 -76.647425 1034.218788 72 70 56
-301.009560 -110.048890 1025.919819 62 61 65
-299.930286 -89.240438 1035.574055 125 133 112
-297.596908 -29.721287 1053.782082 138 164 159
-300.711656 -75.586885 1031.960011 41 41 42
-302.628732 -91.223049 1031.824303 142 150 116
-303.664517 -95.107496 1030.825901 70 65 64
-300.311780 -42.275095 1028.140831 171 171 154
-305.233932 -104.640722 1023.693848 255 255 255
-300.960159 -40.129867 1050.538635 96 135 138
-291.255665 87.141728 1034.678745 148 136 91
-302.321410 -54.491395 1032.724667 50 49 52
-309.553170 -136.045957 1054.869175 100 89 57
-307.798862 -120.204222 1044.170189 33 29 24
-307.798862 -120.204222 1044.170189 33 29 24
-304.397011 -70.539075 1038.099384 48 43 43
-304.969239 -56.382787 1036.168861 135 136 107
-310.179114 -119.279504 1037.407398 44 35 30
-310.179114 -119.279504 1037.407398 44 35 30
-304.398322 -32.718176 1047.246552 110 124 101
-304.398322 -32.718176 1047.246552 110 124 101
-312.333298 -132.135320 1036.593342 182 173 119
-302.567029 -1.442476 1051.165390 177 165 92
-311.750960 -116.787577 1034.847260 26 20 20
-308.847547 -68.723774 1034.206963 163 156 103
-310.599828 -88.758731 1032.768059 68 63 62
-313.544679 -124.004352 1036.666870 163 153 92
-307.289553 57.608449 1277.446270 245 245 245
-293.664503 133.495688 1030.465126 170 171 163
-310.623431 -77.134603 1034.462643 84 76 66
-310.298252 -36.121258 1042.090797 94 119 119
-309.793997 -15.575063 1053.849602 51 54 59
-311.528063 -35.012037 1040.168476 159 166 160
-309.544754 0.473629 1042.057419 69 73 42
-312.679720 -33.483857 1039.274788 62 88 91
-305.698180 93.984997 1343.422318 254 255 254
-313.967729 -38.700491 1038.709545 117 140 135
-312.015629 -13.154820 1051.930523 89 102 99
-317.317867 -76.597571 1019.071102 54 46 33
-317.790985 -82.128924 1018.743801 250 250 248
-314.466572 -35.957903 1037.890148 120 147 146
-314.397454 -33.479804 1037.710381 135 155 140
-311.805534 -1.085536 1043.025875 169 170 102
-313.053131 -11.543813 1051.469994 99 116 105
-318.449426 -77.200884 1017.478943 249 249 243
-318.462110 -77.001774 1017.754841 249 249 243
-317.961478 -65.283841 1020.185947 52 45 42
-303.093481 130.890501 1020.063877 106 112 107
-320.706987 -79.338193 1017.944813 255 255 255
-303.682423 132.052302 1020.135975 165 167 155
-304.184985 130.529571 1018.139076 111 116 111
-318.318486 -33.332115 1031.899261 76 105 127
-313.915825 21.986298 1027.046871 122 114 58
-314.697075 29.308325 1025.776291 185 177 129
-318.326020 1.745338 1035.128403 71 63 34
-315.529084 36.883953 1024.208546 132 131 48
-315.529084 36.883953 1024.208546 132 131 48
-317.307091 20.074894 1025.850582 124 120 45
-319.580650 7.658216 1026.895046 133 131 119
-319.580650 7.658216 1026.895046 133 131 119
-320.937085 1.795770 1033.987713 57 52 22
-319.633698 26.529497 1024.166298 78 80 84
-319.823194 24.658002 1024.621201 73 73 78
-318.273020 44.755179 1021.938992 156 158 162
-323.536158 -0.430663 1031.296349 85 72 17
-322.523856 16.235407 1024.761295 111 118 124
-321.697187 28.882834 1019.989491 79 79 81
-313.014507 128.064263 1011.457062 169 167 165
-322.581363 23.603792 1021.521950 84 86 91
-323.780894 13.147497 1026.537228 37 39 42
-324.857283 10.173968 1028.287411 33 35 39
-316.941881 100.581825 1014.287090 106 112 108
-324.546981 17.918518 1019.615650 131 132 136
-324.185348 25.171217 1014.616489 255 255 254
-326.635504 -1.943729 1028.330898 161 147 73
-320.791554 68.894976 1017.982578 68 71 75
-320.791554 68.894976 1017.982578 68 71 75
-326.054382 11.656570 1018.813896 64 67 68
-326.251674 12.071571 1026.764011 129 132 141
-325.953174 16.193295 1019.926739 115 117 116
-321.826935 63.381797 1016.078663 84 87 93
-326.921892 11.940910 1019.930840 45 47 48
-324.179721 44.824174 1015.605927 117 114 102
-319.932151 101.581311 1014.801693 161 161 163
-324.987578 52.040052 1014.347553 153 149 131
-328.822494 14.377148 1018.958187 110 105 73
-329.701304 4.113795 1025.761986 111 117 120
-321.424437 100.349081 1013.030624 83 87 91
-324.375439 68.692207 1011.914730 137 139 143
-325.736809 57.247311 1013.099480 158 156 155
-325.370908 66.322380 1011.568165 152 152 144
-326.104927 59.893948 1013.505554 135 133 106
-326.214647 61.244577 1012.958241 155 152 126
-331.437492 3.714186 1021.952915 112 101 51
-322.595453 110.378885 1012.840843 58 64 66
-331.888843 21.232802 1003.843975 255 255 255
-334.411645 -0.136378 1020.219231 96 88 68
-334.411645 -0.136378 1020.219231 96 88 68
-325.152040 100.706398 1013.146305 110 115 113
-335.131431 -5.710436 1021.622276 255 255 255
-325.071931 104.078436 1012.921810 168 168 167
-325.840592 102.384520 1013.294697 111 116 114
-325.840592 102.384520 1013.294697 111 116 114
-327.010393 101.069856 1012.835789 167 165 159
-325.962639 112.604690 1011.798573 68 74 80
-326.761198 105.515361 1012.767696 166 169 159
-326.390600 111.584115 1012.363243 146 149 150
-326.945543 107.324123 1012.383938 163 165 168
-326.945543 107.324123 1012.383938 163 165 168
-327.145028 110.667825 1012.062168 143 146 132
-327.145028 110.667825 1012.062168 143 146 132
-326.826549 129.323363 1009.519672 129 132 78
-340.909123 -19.109057 1023.498726 75 79 87
-340.909123 -19.109057 1023.498726 75 79 87
-341.031623 -15.552504 1022.450733 51 51 59
-332.262421 82.532555 1017.006779 255 255 255
-179.999244 -23.992303 1025.053596 139 135 135
-179.105866 110.551786 1012.237835 165 164 162
-185.292578 88.278872 1013.795567 116 119 123
-190.670943 -18.545613 1032.293510 133 134 90
-186.452663 46.396896 1014.154339 118 120 104
-186.893368 40.898380 1014.061832 190 189 183
-190.581977 7.052849 1022.343922 62 65 74
-191.411221 12.380746 1019.044304 102 103 102
-192.895937 4.560907 1025.102997 61 64 70
-194.815540 -2.842507 1026.506996 53 56 59
-194.815540 -2.842507 1026.506996 53 56 59
-195.686877 -0.077782 1026.006699 128 128 128
-196.632361 111.157691 1017.206669 136 140 144
-205.605316 -61.082947 1040.965462 255 255 255
-202.705550 2.676325 1029.487419 111 113 112
-202.705550 2.676325 1029.487419 111 113 112
-207.994318 -14.193176 1047.888184 71 68 41
-205.964279 10.241777 1030.897236 103 103 104
-206.444049 7.413279 1032.546520 174 170 168
-210.245609 -75.470477 1042.931938 255 255 255
-216.046762 -11.374538 1053.795242 60 54 33
-214.363766 -64.068455 1040.409088 100 95 61
-215.467501 11.727298 1041.367149 134 134 135
-223.580432 -150.973022 1065.208912 254 254 253
-217.282271 -60.859960 1040.774059 66 53 36
-221.493840 -7.058356 1059.948730 162 155 115
-221.639061 5.195226 1049.922943 113 114 104
-220.491767 15.599556 1045.041943 178 175 174
-223.596644 -74.981838 1042.477417 102 92 44
-223.799777 -69.244522 1042.999172 166 147 82
