ply
		format ascii 1.0
		element vertex 1364
		property float x
		property float y
		property float z
		property uchar blue
		property uchar green
		property uchar red
		end_header
-3.721846 -2.517910 11.197871 129 106 119
-3.627395 -0.443650 10.932351 69 57 64
-2.115277 1.802485 6.390685 92 73 109
-2.115277 1.802485 6.390685 92 73 109
-2.086180 1.845285 6.307924 49 38 65
-3.675235 -2.344795 11.134173 113 98 125
-3.684553 -2.857545 11.173180 117 92 109
-3.649570 -1.867169 11.097834 122 96 116
-3.676991 -3.148273 11.197481 122 98 122
-3.461269 1.564225 10.555326 147 119 132
-2.095809 1.594945 6.441094 60 43 76
-2.095809 1.594945 6.441094 60 43 76
-3.607795 -3.057167 11.099902 110 89 111
-2.094648 1.536649 6.445345 55 39 70
-2.094648 1.536649 6.445345 55 39 70
-2.060617 1.574942 6.349589 67 51 76
-3.457968 0.225341 10.686311 71 53 67
-3.522978 -1.014268 10.901441 90 72 91
-3.457000 0.280091 10.698710 75 55 67
-3.457000 0.280091 10.698710 75 55 67
-2.072680 1.508733 6.426318 55 40 71
-3.456337 -1.008859 10.813461 81 67 85
-1.982329 1.833440 6.209641 60 47 70
-3.378571 0.226647 10.616818 90 67 73
-3.451253 -1.592508 10.863709 78 60 76
-3.416431 -0.462423 10.759387 75 61 75
-3.373774 0.049756 10.641940 83 63 74
-3.423586 -1.230630 10.807911 81 67 85
-3.412781 -2.091349 10.873672 128 111 131
-3.387974 -2.112098 10.825671 85 66 88
-3.378051 -2.046218 10.797976 72 56 67
-3.378051 -2.046218 10.797976 72 56 67
-3.368147 -1.230644 10.772079 72 54 73
-3.322123 -0.468585 10.641456 70 57 70
-3.344793 -1.616730 10.761034 123 108 136
-3.317882 -1.164947 10.684916 72 59 80
-3.317882 -1.164947 10.684916 72 59 80
-3.211020 1.552804 10.341416 79 58 67
-3.211020 1.552804 10.341416 79 58 67
-3.189439 1.524550 10.300104 129 109 121
-3.286652 -1.596231 10.685358 79 60 78
-1.820059 1.945500 5.924991 94 72 69
-3.153749 1.398477 10.267601 58 25 25
-3.157245 1.146066 10.309821 55 29 26
-1.797440 1.951093 5.875134 254 207 184
-1.797440 1.951093 5.875134 254 207 184
-3.122788 1.536217 10.225149 80 60 67
-3.268606 -2.054636 10.707473 81 63 78
-3.132222 1.271386 10.265141 65 33 23
-3.132222 1.271386 10.265141 65 33 23
-3.190906 -1.164974 10.544701 95 86 103
-3.092573 1.299183 10.218413 244 177 162
-1.773623 1.950356 5.863605 87 44 47
-3.092407 1.235044 10.229767 246 179 164
-3.084319 1.182398 10.234866 249 181 163
-3.119475 0.375945 10.374368 70 54 70
-3.119475 0.375945 10.374368 70 54 70
-3.176404 -1.234445 10.567295 64 52 71
-3.177453 -1.577107 10.587423 139 119 140
-3.049774 1.259246 10.181780 49 27 21
-3.076080 1.049441 10.283831 68 50 63
-3.051431 0.561718 10.274169 76 59 69
-3.014549 1.274951 10.153688 137 101 104
-3.011841 1.370279 10.153809 52 24 17
-3.097658 -0.733881 10.448976 65 52 67
-3.155639 -2.280937 10.645795 59 43 60
-3.155639 -2.280937 10.645795 59 43 60
-3.069714 -0.474153 10.366132 74 48 58
-3.069714 -0.474153 10.366132 74 48 58
-3.159693 -2.565462 10.673146 81 65 80
-3.001570 1.293171 10.160538 90 53 55
-2.993392 1.031403 10.153516 63 52 65
-3.065207 -1.235623 10.444939 53 41 61
-3.120051 -2.586111 10.636117 103 79 97
-3.120051 -2.586111 10.636117 103 79 97
-3.040049 -0.737283 10.412688 77 62 77
-2.495526 1.491439 8.609140 46 42 67
-3.015265 -1.391299 10.432040 70 58 78
-2.963558 -0.008885 10.254548 71 49 67
-2.927846 1.034256 10.137082 59 49 63
-1.773431 1.543869 6.149535 72 57 104
-2.943409 0.015248 10.214883 130 110 124
-3.034339 -2.580957 10.548530 91 69 90
-3.034339 -2.580957 10.548530 91 69 90
-2.949450 -0.480591 10.258066 64 43 51
-3.020451 -2.547623 10.534534 143 121 131
-3.040598 -2.301429 10.608510 74 59 75
-2.874338 1.245608 10.060238 133 112 121
-2.523996 1.248895 8.833645 52 48 61
-2.898403 0.230397 10.193087 71 51 62
-1.363872 1.392005 4.804083 98 77 114
-2.857011 1.213705 10.065621 58 45 64
-2.853138 0.345522 10.082272 68 53 71
-2.450620 1.310519 8.739641 85 71 112
-2.817104 0.663686 10.061908 67 52 66
-2.908823 -2.274556 10.408269 77 61 73
-2.908823 -2.274556 10.408269 77 61 73
-2.792852 0.837344 10.004687 67 54 64
-2.423704 1.341459 8.707872 42 34 60
-2.820814 -0.498459 10.170484 65 52 65
-2.820814 -0.498459 10.170484 65 52 65
-2.412521 1.254664 8.745074 33 32 33
-2.766082 0.227953 10.042450 54 45 56
-2.871172 -3.034530 10.453691 85 65 86
-2.771955 -0.279492 10.110242 71 48 64
-2.435478 1.119714 8.963029 123 103 154
-2.722093 0.226030 10.023839 56 45 59
-2.796124 -2.290363 10.310100 80 60 78
-2.775217 -1.861806 10.251906 128 108 129
-2.715479 -0.042898 10.032788 83 60 77
-2.778443 -1.864335 10.269277 128 108 129
-2.754536 -1.530310 10.205029 66 48 61
-2.662556 0.823873 9.896238 42 35 46
-2.397181 1.163407 8.921472 54 56 76
-2.751032 -1.900535 10.243925 53 46 68
-2.736891 -1.645519 10.208080 66 53 77
-2.301606 1.255043 8.597701 76 73 108
-2.669528 -0.293811 10.000518 60 50 70
-2.596154 0.712808 9.733735 113 91 110
-2.667776 -0.269328 10.019701 127 104 123
-2.721491 -2.781080 10.276064 82 65 76
-2.606386 -0.054395 9.935740 70 54 68
-2.325750 0.223272 8.876746 114 99 148
-2.324105 0.266244 8.875284 32 25 64
-2.326891 0.194585 8.894012 34 32 76
-2.679928 -2.785817 10.256615 70 56 77
-2.186627 1.215155 8.406658 55 50 65
-1.539090 1.603222 5.939319 65 49 92
-2.565338 -0.055252 9.898968 62 52 73
-2.604925 -1.654177 10.070912 71 59 85
-2.617851 -2.290933 10.139732 79 63 86
-2.624697 -2.746043 10.198454 138 118 138
-2.587786 -1.363102 10.074854 68 57 75
-2.604942 -2.765291 10.167115 92 75 93
-2.503510 -0.029699 9.776204 123 102 120
-2.548702 -1.065900 9.955715 62 47 61
-2.585259 -2.103293 10.101269 71 55 78
-2.585259 -2.103293 10.101269 71 55 78
-2.578886 -1.895914 10.090506 54 43 59
-2.267450 0.181381 8.874353 113 95 148
-2.517810 -0.310650 9.873474 61 47 65
-2.517810 -0.310650 9.873474 61 47 65
-2.152352 1.208800 8.463772 98 84 128
-2.151706 1.384865 8.466703 50 42 74
-2.484015 -0.053180 9.804611 52 41 53
-2.484015 -0.053180 9.804611 52 41 53
-2.193001 1.131318 8.669023 56 52 76
-3.571270 3.634216 14.126911 60 43 76
-3.571270 3.634216 14.126911 60 43 76
-2.116159 1.340546 8.439206 41 34 59
-2.115294 1.150918 8.456231 106 87 132
-2.149587 1.084505 8.635002 116 100 153
-2.083897 1.326102 8.388874 55 47 73
-2.077861 1.310931 8.385428 42 36 61
-2.470938 -1.891735 9.989063 58 50 74
-2.450854 -1.578165 9.919716 80 60 80
-2.416471 -0.974819 9.830475 64 54 76
-2.481658 -3.044071 10.097197 66 51 68
-2.193594 0.384133 8.932662 18 19 42
-2.158018 0.947403 8.841337 107 93 138
-2.039254 1.327780 8.354630 45 36 68
-2.453490 -3.002864 10.057052 129 110 127
-1.965770 1.496720 8.073213 97 68 76
-2.046467 1.145525 8.422718 106 87 132
-2.046467 1.145525 8.422718 106 87 132
-2.010920 1.169083 8.346106 47 40 70
-2.362616 -1.893697 9.865515 67 56 73
-2.362616 -1.893697 9.865515 67 56 73
-2.316074 -0.549112 9.715298 66 52 71
-1.925127 1.460290 8.087639 57 49 79
-2.319312 -1.036179 9.759029 124 110 131
-2.319312 -1.036179 9.759029 124 110 131
-2.074934 1.141216 8.742131 44 40 61
-2.328773 -2.329546 9.916927 71 58 75
-2.323950 -2.669216 9.918930 69 53 72
-2.251945 -0.323038 9.614285 69 56 77
-2.266010 -0.793714 9.680958 59 46 64
-1.312663 1.741559 5.631159 57 51 86
-2.247120 -0.555746 9.644585 67 52 66
-2.231813 -1.088923 9.696230 60 49 63
-2.231813 -1.088923 9.696230 60 49 63
-1.854364 1.129351 8.164330 108 87 131
-2.181805 -0.992921 9.644694 69 57 78
-2.222360 -2.670066 9.827655 90 71 90
-2.157679 -0.636873 9.559831 67 54 73
-2.223095 -2.842889 9.859254 74 62 83
-2.223095 -2.842889 9.859254 74 62 83
-1.228390 1.727014 5.550732 49 42 72
-1.256428 1.208832 5.699631 68 63 102
-1.256428 1.208832 5.699631 68 63 102
-1.756740 1.439487 7.966467 65 56 79
-1.756740 1.439487 7.966467 65 56 79
-1.966074 0.704764 8.924463 33 28 60
-1.790512 1.170920 8.165557 56 42 81
-1.251371 1.409452 5.714478 55 42 88
-2.068610 -0.340607 9.457520 65 53 73
-2.105602 -2.311350 9.680438 69 57 74
-2.032282 -1.386987 9.521231 73 62 81
-2.034103 -2.365103 9.618129 77 64 79
-1.694784 1.325764 8.046546 78 60 107
-1.828475 0.721574 8.695198 39 31 72
-1.977360 -0.557439 9.417612 62 51 73
-1.838074 0.595091 8.829018 32 24 56
-1.838074 0.595091 8.829018 32 24 56
-1.979366 -2.501209 9.574406 133 112 130
-1.804392 0.763291 8.764136 21 20 55
-1.146217 1.687347 5.603378 110 88 128
-1.628476 1.256005 7.984611 59 43 83
-1.937606 -2.846476 9.587738 74 56 77
-1.133449 1.678250 5.624135 156 128 174
-1.753874 0.581928 8.727506 35 27 55
-1.738713 -0.217382 8.670745 48 44 86
-1.712609 -0.305026 8.566853 24 23 48
-1.870010 -1.408250 9.391418 51 43 63
-1.878620 -1.929904 9.448095 50 39 53
-1.678900 -1.147398 8.452168 115 100 128
-1.617929 -1.540875 8.179786 67 54 95
-1.593920 -1.497697 8.162542 33 32 71
-1.503623 1.404585 7.717685 65 53 80
-1.503623 1.404585 7.717685 65 53 80
-1.831774 -2.337843 9.433290 76 64 86
-1.831774 -2.337843 9.433290 76 64 86
-1.094362 1.191699 5.646191 92 77 126
-1.689574 0.298508 8.738308 36 27 65
-1.081706 1.556087 5.638001 105 81 115
-1.534563 1.059898 8.066967 74 62 107
-1.534563 1.059898 8.066967 74 62 107
-1.631634 -0.676850 8.579500 26 24 46
-1.794428 -2.841957 9.442476 74 59 83
-1.794428 -2.841957 9.442476 74 59 83
-1.456636 1.126434 7.829738 58 41 78
-1.589868 0.261400 8.613357 40 32 58
-1.697209 -2.558192 9.234708 137 111 125
-1.522622 -1.403756 8.296148 25 21 37
-1.576992 -0.058318 8.602530 35 30 75
-1.547661 -1.142815 8.453827 36 30 62
-1.708982 -2.487560 9.337874 83 63 77
-1.017033 1.731872 5.562420 71 59 109
-1.549652 0.014366 8.537727 79 69 118
-1.549912 0.608810 8.552638 20 20 53
-1.533219 -1.084317 8.466558 58 42 69
-1.540979 -1.200073 8.510433 106 91 118
-1.378054 1.358953 7.622322 60 49 76
-1.014638 1.485538 5.678730 75 56 89
-1.520065 0.381761 8.528316 51 42 87
-1.408690 -1.597877 8.007565 75 68 119
-1.495002 0.129650 8.567075 37 28 56
-1.622034 -2.637094 9.296571 86 64 87
-1.490655 0.252517 8.558796 39 28 56
-1.399337 -1.433834 8.057627 22 23 43
-1.467715 -0.137427 8.551071 77 67 116
-1.569122 -2.176538 9.209576 62 49 67
-1.576207 -2.638527 9.260048 93 64 86
-1.338380 -1.635880 7.942059 75 66 121
-1.540040 -2.829138 9.220919 72 55 74
-1.341589 -0.857818 8.108249 43 35 72
-1.327151 -0.972926 8.035117 45 37 70
-1.514649 -2.508966 9.190022 97 74 91
-1.253086 1.272341 7.658934 62 48 94
-1.253086 1.272341 7.658934 62 48 94
-0.922332 1.563042 5.669987 74 54 93
-0.920439 1.471756 5.675232 79 60 106
-1.313760 0.481843 8.132799 43 32 71
-1.313760 0.481843 8.132799 43 32 71
-0.916714 1.426160 5.681581 80 63 114
-0.916714 1.426160 5.681581 80 63 114
-1.305003 0.696116 8.097650 46 35 77
-1.468322 -2.582691 9.139231 80 65 86
-1.226294 1.230881 7.637784 59 44 83
-1.276224 -0.882203 8.005857 95 81 128
-0.898139 1.597321 5.663768 74 55 89
-1.278669 0.697214 8.075279 80 72 125
-1.264180 -1.005676 8.004751 43 35 69
-1.250721 -1.440259 7.918801 23 20 45
-1.266975 -0.864049 8.030457 36 30 66
-1.267101 -0.864648 8.033282 36 30 66
-0.892360 1.501770 5.675447 81 61 116
-1.316061 -1.914801 8.405294 121 102 122
-1.252052 0.807543 8.043273 35 26 69
-1.235157 -0.831361 7.985612 92 76 126
-1.251485 0.472217 8.093088 47 37 73
-1.251485 0.472217 8.093088 47 37 73
-1.224496 -0.997143 7.945361 100 82 130
-1.224496 -0.997143 7.945361 100 82 130
-1.253606 -2.009133 8.140289 42 31 55
-1.254331 -1.925465 8.163550 33 33 85
-1.238543 0.001624 8.072856 99 78 107
-1.210805 -0.967236 7.935362 45 34 66
-1.382482 -2.648755 9.075977 74 63 81
-1.212978 -0.801692 7.990031 30 24 58
-1.221531 -2.030869 8.118650 42 31 56
-1.192770 -0.991370 7.938911 87 74 126
-1.190208 0.807812 7.985421 35 26 60
-1.191163 0.379074 8.022137 37 30 61
-1.184492 0.680151 7.989971 41 30 68
-0.837053 1.596927 5.670189 68 50 91
-0.837053 1.596927 5.670189 68 50 91
-0.837053 1.596927 5.670189 68 50 91
-0.841872 1.305073 5.709292 75 57 90
-0.841872 1.305073 5.709292 75 57 90
-1.085508 1.349069 7.357972 57 51 69
-1.175947 -0.707615 7.974093 90 78 126
-1.178663 -0.034030 8.025840 92 72 100
-1.179130 0.140017 8.043537 40 30 62
-1.172654 -0.676397 7.999977 23 23 52
-1.343182 -1.709577 9.169293 26 22 47
-1.160535 0.683035 7.973915 81 70 122
-0.820005 1.427005 5.690259 74 56 109
-1.156975 -0.009286 8.026920 27 25 57
-1.935553 1.974511 13.424274 54 42 73
-0.818111 1.563324 5.683275 85 62 100
-0.818210 1.473783 5.688709 81 62 115
-0.817254 1.563422 5.683840 85 62 100
-1.153846 -0.790972 8.074698 25 23 59
-1.126279 -1.591158 7.886911 99 83 136
-1.111147 -1.447293 7.783167 23 21 45
-1.138833 -0.351563 8.054317 73 65 122
-1.107121 0.734730 7.860112 32 30 67
-1.113370 -1.625351 7.905050 37 29 57
-1.113370 -1.625351 7.905050 37 29 57
-1.102946 0.707224 7.890388 84 73 126
-1.246866 -2.525896 8.927571 55 39 53
-1.246866 -2.525896 8.927571 55 39 53
-1.106591 -0.317699 7.995608 80 71 128
-1.086719 -0.232295 7.858323 69 59 100
-1.081842 -1.601903 7.874297 95 81 135
-1.093876 -0.982414 7.972750 23 22 49
-1.093876 -0.982414 7.972750 23 22 49
-1.021635 1.075990 7.449543 59 48 85
-1.214921 -2.410577 8.906164 78 53 65
-1.209654 -2.562921 8.924611 49 34 45
-1.068422 0.690688 7.888811 35 27 52
-1.023235 0.465668 7.581929 59 53 102
-1.009409 0.549785 7.513698 128 130 134
-0.992128 1.025116 7.441854 105 68 80
-0.997892 0.484152 7.487086 184 178 180
-0.754759 1.503972 5.691271 62 43 80
-0.989090 0.520381 7.470431 15 17 25
-1.054356 -0.377590 7.971427 36 30 62
-0.978775 0.479050 7.535565 189 190 193
-1.008533 -1.776946 7.771015 26 23 48
-1.033990 -0.345730 7.991566 26 24 53
-1.027887 -0.177295 7.945368 20 20 46
-1.030150 -0.739006 7.974962 39 30 60
-1.030150 -0.739006 7.974962 39 30 60
-0.990567 -1.793178 7.696609 24 21 40
-1.024476 -0.386412 7.968337 83 69 112
-0.949920 1.031978 7.398067 195 143 127
-0.730885 1.484670 5.703178 69 51 92
-0.726900 1.561250 5.690427 76 59 93
-1.014660 -0.478754 7.942471 49 39 73
-0.969950 0.649254 7.615855 66 87 101
-0.976971 -1.459881 7.688458 22 21 45
-0.945295 0.466709 7.475868 139 139 148
-0.948242 0.596296 7.500464 32 41 61
-0.957475 0.625738 7.619440 16 21 35
-1.000237 -0.425871 7.976922 23 24 54
-0.944752 0.412702 7.541705 188 180 184
-0.938571 0.442439 7.502812 116 116 125
-0.961696 -1.607737 7.699504 55 46 87
-0.951157 -1.810226 7.631589 75 69 121
-0.709264 1.538022 5.698175 126 105 153
-0.709264 1.538022 5.698175 126 105 153
-0.988318 -0.462002 7.939820 75 65 114
-0.988318 -0.462002 7.939820 75 65 114
-0.919080 1.069589 7.388134 55 43 79
-0.943620 0.379085 7.652894 39 37 75
-0.971117 -0.779530 7.939497 44 34 65
-0.971117 -0.779530 7.939497 44 34 65
-0.915409 0.454705 7.491538 91 88 95
-0.908557 0.486580 7.455353 179 187 187
-0.960036 -0.499280 7.908698 25 23 52
-1.066629 -2.665557 8.833129 80 62 85
-0.864458 1.320746 7.171772 56 50 63
-0.949230 -0.550344 7.890100 36 29 65
-0.925544 0.078767 7.699730 171 190 199
-1.053741 -2.572862 8.776044 121 104 126
-0.890539 0.506697 7.451890 109 109 118
-1.046227 -2.550800 8.779875 63 49 70
-0.886084 0.527725 7.443608 148 159 166
-0.928949 -0.071659 7.849991 107 124 142
-0.932383 -0.523820 7.884573 72 64 110
-0.907390 0.157199 7.685144 160 178 190
-0.897759 0.406380 7.633738 160 147 156
-0.878883 0.444822 7.482795 172 188 196
-0.910785 -1.263028 7.759190 52 39 78
-0.910785 -1.263028 7.759190 52 39 78
-0.907200 -1.637978 7.734575 47 41 79
-0.655490 1.735049 5.601417 65 54 95
-0.854307 1.068187 7.297107 73 58 84
-0.900603 0.001185 7.723192 149 169 180
-0.900603 0.001185 7.723192 149 169 180
-0.863962 0.583214 7.431902 25 28 45
-1.016751 -2.652071 8.757100 78 59 83
-0.876477 0.702961 7.580602 30 28 62
-0.856749 0.499335 7.479449 203 215 219
-0.856749 0.499335 7.479449 203 215 219
-0.854494 0.465389 7.479829 110 116 130
-0.831773 -0.520380 7.295198 24 22 50
-0.881192 -0.228832 7.795328 113 129 146
-0.823625 1.227660 7.286222 70 58 103
-0.838601 0.570414 7.437824 145 157 165
-0.871845 -1.629218 7.737106 96 82 134
-0.818024 1.058422 7.286748 118 99 144
-0.852961 0.208492 7.618685 129 154 170
-0.974700 -2.639740 8.719889 80 59 86
-0.974700 -2.639740 8.719889 80 59 86
-0.865636 0.040648 7.752821 33 57 90
-0.634297 1.413849 5.697458 67 51 92
-0.634297 1.413849 5.697458 67 51 92
-0.871539 -0.592603 7.830640 36 30 63
-0.840381 -1.468307 7.563394 25 24 45
-0.860645 -0.854003 7.771309 107 89 136
-0.860645 -0.854003 7.771309 107 89 136
-0.781462 1.304234 7.076627 50 43 54
-0.830268 0.193591 7.625480 70 75 94
-0.806245 0.568116 7.448097 57 49 62
-0.838753 -0.276730 7.757091 88 101 126
-0.805587 0.548507 7.458667 142 158 169
-0.838861 -0.768090 7.828818 30 31 65
-0.822515 -1.246413 7.675910 93 78 129
-0.814377 0.215084 7.610920 134 156 170
-0.827242 -0.207078 7.745418 95 118 139
-0.797976 0.481510 7.503786 104 115 132
-0.824690 -0.568606 7.794778 24 22 50
-0.824690 -0.568606 7.794778 24 22 50
-0.756979 1.156320 7.221683 61 47 82
-0.804860 0.340885 7.721233 43 54 83
-0.730837 1.320794 7.040451 49 41 52
-0.793507 0.166169 7.658883 131 142 155
-0.793507 0.166169 7.658883 131 142 155
-0.772849 0.547976 7.490523 101 110 123
-0.793475 0.367571 7.706242 133 165 181
-0.799785 0.130488 7.769367 11 27 49
-0.764136 0.608677 7.443292 137 117 131
-0.787907 0.291203 7.755075 17 34 62
-0.787505 -0.599895 7.765282 33 27 57
-0.871022 -2.542194 8.606156 69 55 75
-0.765508 -1.645142 7.620793 34 25 58
-0.753005 0.548820 7.504186 137 150 161
-0.765340 -1.274989 7.635870 55 44 82
-0.739544 0.653678 7.433088 23 20 32
-0.741231 -0.989429 7.478048 31 31 61
-0.741231 -0.989429 7.478048 31 31 61
-0.736898 0.579219 7.452859 76 76 97
-0.757838 0.378642 7.725102 131 157 173
-0.759504 -0.176081 7.761929 16 18 39
-0.753033 -0.557991 7.729359 19 19 47
-0.753033 -0.557991 7.729359 19 19 47
-0.748982 -0.270929 7.700601 17 17 37
-0.778236 -1.970255 7.999422 130 108 135
-0.735151 -1.621107 7.568027 92 82 135
-0.735151 -1.621107 7.568027 92 82 135
-0.762053 -0.353125 7.891686 77 64 113
-0.712543 0.557194 7.429085 146 161 173
-0.729658 0.189390 7.625364 134 156 174
-0.743402 -2.049833 7.772854 33 27 74
-0.710104 0.591983 7.431554 80 78 101
-0.731051 0.112339 7.659943 161 186 198
-0.803555 -2.507246 8.433803 45 28 44
-0.707313 -1.478279 7.447716 27 24 46
-0.731227 -2.075982 7.735056 62 51 107
-0.726119 0.298938 7.717231 63 82 104
-0.712465 -1.258208 7.579560 96 80 132
-0.585121 1.160184 6.302053 66 57 80
-0.779253 -2.487970 8.404347 138 152 169
-0.777407 -2.555490 8.397882 76 74 88
-0.686906 -1.045728 7.492568 25 23 44
-0.698059 0.153186 7.643213 118 140 156
-0.647274 1.050023 7.145687 48 43 53
-0.668269 0.589199 7.396587 189 201 206
-0.756096 -2.574909 8.373488 202 193 195
-0.690832 -0.514763 7.670383 23 21 49
-0.665046 0.610751 7.384679 32 27 47
-0.657093 0.565650 7.400603 95 95 112
-0.742098 -2.519850 8.358088 146 118 126
-0.509448 1.239609 5.780847 42 39 74
-0.661055 -1.259972 7.549750 96 79 130
-0.728510 -2.495576 8.336788 158 181 197
-0.653195 0.282705 7.634130 16 16 31
-0.632298 -1.009670 7.431495 92 79 128
-0.655956 -1.897617 7.732761 45 36 82
-0.644044 -0.509761 7.635559 34 27 57
-0.592443 1.034798 7.091766 47 38 52
-0.629957 -0.413621 7.600259 70 63 102
-0.687990 -2.401691 8.302483 30 26 37
-0.687834 -2.401678 8.305583 30 26 37
-0.604791 0.840168 7.331351 122 105 159
-0.609211 -1.642846 7.416716 33 25 50
-0.609211 -1.642846 7.416716 33 25 50
-0.682027 -2.517904 8.316958 44 37 54
-0.677950 -2.552594 8.305187 143 157 176
-0.606505 0.607697 7.432084 129 144 159
-0.603148 -0.970591 7.409040 30 26 56
-0.671646 -2.425844 8.298719 132 157 171
-0.670669 -2.459365 8.300327 42 31 32
-0.597009 -1.033347 7.429942 32 23 51
-0.550978 1.270042 6.882454 66 57 80
-0.601515 -0.374427 7.531547 19 16 41
-0.587225 0.646022 7.446713 44 43 74
-0.650818 -2.382169 8.265005 28 22 35
-0.606324 -1.983098 7.713378 54 46 96
-0.581242 0.688144 7.418727 33 31 74
-0.564831 0.951385 7.212384 74 63 117
-0.458595 1.405354 5.866801 67 48 85
-0.644522 -2.467723 8.254441 113 104 68
-0.571705 -1.489832 7.345748 23 23 45
-0.542064 1.048084 7.046119 112 91 138
-0.561398 0.369691 7.474269 91 79 133
-0.567498 -0.349064 7.565033 80 73 123
-0.548023 -1.021615 7.352031 45 35 68
-0.551737 0.150650 7.461682 88 79 130
-0.542676 -0.992040 7.351949 85 70 119
-0.543532 -1.267782 7.427795 98 81 132
-0.599471 -2.509080 8.211338 119 102 60
-0.541000 0.404208 7.445712 42 33 74
-0.544302 -0.009875 7.497220 39 30 70
-0.541682 0.356252 7.486570 78 63 110
-0.590470 -2.440970 8.214335 43 33 39
-0.536380 0.194792 7.466328 45 37 75
-0.527383 -1.032701 7.341126 95 81 131
-0.588047 -2.387628 8.210785 23 23 34
-0.523798 -0.560309 7.366653 35 35 70
-0.585975 -2.400701 8.257037 23 23 34
-0.579149 -2.463411 8.199049 54 39 22
-0.493233 1.024335 7.022747 52 37 68
-0.514270 -1.047649 7.352205 49 36 79
-0.514248 -0.067947 7.432203 32 27 59
-0.506999 0.612814 7.394607 83 75 130
-0.498763 -1.038646 7.295891 48 42 77
-0.495282 -1.291299 7.274603 82 71 117
-0.517298 -1.852888 7.601657 52 45 105
-0.517298 -1.852888 7.601657 52 45 105
-0.517298 -1.852888 7.601657 52 45 105
-0.489328 -0.916752 7.378055 39 34 71
-0.542532 -2.451021 8.206128 117 130 155
-0.391886 1.364266 5.965780 62 46 88
-0.485784 -1.271081 7.399992 100 84 131
-0.483773 0.306776 7.408462 38 30 66
-0.531942 -2.488515 8.163641 103 119 135
-0.480508 0.400143 7.408535 46 39 76
-0.459802 -0.881153 7.278361 88 74 129
-0.478069 -1.821149 7.570804 109 91 145
-0.453065 0.566568 7.341267 114 100 153
-0.454053 0.147650 7.382365 108 96 148
-0.498464 -2.511356 8.117844 176 193 198
-0.449826 0.719168 7.334267 90 78 134
-0.445352 -0.859555 7.311666 36 28 67
-0.445352 -0.859555 7.311666 36 28 67
-0.440359 -1.029647 7.265058 52 39 82
-0.439430 -1.066709 7.273567 42 28 60
-0.435868 -0.788565 7.293195 102 89 141
-0.354907 1.547483 5.998155 62 46 82
-0.425698 -1.049206 7.275901 102 87 135
-0.418813 0.718235 7.305736 37 29 62
-0.396783 1.010755 6.932075 111 92 139
-0.420228 -0.023741 7.374500 38 30 63
-0.412503 -0.910604 7.355463 32 27 65
-0.400844 -0.296937 7.205654 90 72 110
-0.403273 -0.741593 7.328182 26 21 53
-0.377296 0.990434 6.933239 49 40 62
-0.403227 -1.722503 7.462061 112 91 149
-0.393254 0.600631 7.296897 91 80 134
-0.321543 1.609268 6.049646 62 46 80
-0.392103 -0.076116 7.375313 33 29 67
-0.386267 -0.408134 7.320838 87 75 130
-0.386921 -0.848570 7.390459 33 26 67
-0.374072 -1.539590 7.191990 65 58 104
-0.374072 -1.539590 7.191990 65 58 104
-0.412625 -2.412246 8.167979 111 94 121
-0.364341 -0.324714 7.218041 29 25 59
-0.366625 0.598010 7.284997 41 32 69
-0.366625 0.598010 7.284997 41 32 69
-0.368378 -0.960339 7.399328 25 24 55
-0.362161 0.389996 7.291808 46 37 80
-0.362975 -0.986255 7.369536 79 70 114
-0.298161 1.559476 6.075443 81 59 107
-0.361777 -1.223394 7.404803 23 21 53
-0.361500 -1.830462 7.401954 115 103 156
-0.351012 -1.017926 7.376103 35 27 60
-0.342577 -1.812377 7.408646 32 30 81
-0.339464 -1.851614 7.413577 119 101 153
-0.356992 -2.396285 8.140149 70 51 67
-0.261077 1.363748 6.152204 64 49 89
-0.290441 0.983780 6.844316 47 40 56
-0.272899 1.163812 6.803172 59 50 84
-0.272899 1.163812 6.803172 59 50 84
-0.321315 -2.374933 8.121673 141 116 135
-0.264111 0.996178 6.817868 102 88 134
-0.252339 1.119425 6.797042 50 39 76
-0.263011 -1.769639 7.404648 111 93 149
-0.242997 -0.228383 7.389794 15 18 43
-0.242997 -0.228383 7.389794 15 18 43
-0.242409 -1.044380 7.382818 18 16 25
-0.222078 0.939080 7.118567 60 52 74
-0.220627 -2.260989 8.026723 74 55 72
-0.180132 0.988800 6.728975 48 41 67
-0.214428 -2.415253 8.017208 74 58 82
-0.153579 1.007903 6.713967 49 41 65
-0.179745 -2.459361 7.997650 135 114 133
-0.163591 0.255847 7.362611 38 30 62
-0.162617 0.000143 7.388597 45 34 69
-0.159414 0.448339 7.340270 35 28 67
-0.158325 -0.305545 7.422511 34 30 63
-0.134370 1.475411 6.328679 65 47 77
-0.148557 -1.203427 7.243954 87 74 126
-0.145030 0.438212 7.303165 51 41 76
-0.142565 0.655052 7.282858 32 27 64
-0.140519 0.419317 7.312822 36 28 73
-0.128022 1.007522 6.694600 102 86 136
-0.150640 -2.041974 7.853748 106 84 106
-0.149528 -2.430966 7.983669 132 114 133
-0.117353 1.777495 6.304203 116 95 135
-0.122576 1.034990 6.703465 51 43 60
-0.140637 -2.109907 7.940640 88 64 84
-0.130873 -0.426141 7.435688 45 41 79
-0.104319 -0.991376 7.198792 103 86 140
-0.075793 1.511688 6.396526 51 39 79
-0.086147 -0.362900 7.336117 35 29 60
-0.077050 0.980560 6.658574 54 45 77
-0.077050 0.980560 6.658574 54 45 77
-0.065901 1.779853 6.328847 88 72 106
-0.056903 -1.289585 7.447906 50 37 82
-0.052816 0.138738 7.276832 38 30 66
-0.049277 0.662263 7.217493 39 32 73
-0.052399 -2.031610 7.820120 74 62 93
-0.052399 -2.031610 7.820120 74 62 93
-0.033597 -1.056169 7.003834 104 87 144
-0.030646 0.362786 7.076517 97 86 135
-0.020859 1.802622 6.318002 81 66 100
-0.018758 0.562481 7.189638 42 34 68
-0.010946 1.797311 6.362804 129 108 143
-0.010608 -1.537557 7.247719 80 70 108
-0.009178 -1.103983 7.188175 104 87 144
-0.009427 -1.179577 7.243911 27 25 67
-0.008141 -0.812889 7.143044 35 30 57
-0.008141 -0.812889 7.143044 35 30 57
-0.002567 0.377145 7.061712 39 33 80
-0.000803 -1.025715 6.958711 38 32 63
0.002274 1.891447 6.241556 50 43 54
0.006133 0.588624 7.167142 47 36 71
0.006384 1.790860 6.419307 58 47 68
0.006384 1.790860 6.419307 58 47 68
0.008855 1.805797 6.343725 62 55 76
0.011297 -0.151721 7.161547 29 23 50
0.011102 1.202934 6.413279 61 55 92
0.020141 1.128396 6.550181 64 54 97
0.030898 -2.425265 7.840477 76 57 76
0.027732 0.946177 6.590853 56 44 81
0.027732 0.946177 6.590853 56 44 81
0.032751 0.441305 7.179129 29 33 82
0.033795 -0.763650 7.067188 89 73 120
0.033412 -1.037941 6.947767 109 95 145
0.036303 0.077319 7.207134 45 39 86
0.036462 -0.113194 7.229181 43 40 83
0.042826 -2.048339 7.776957 83 68 101
0.043407 -2.400562 7.816376 144 119 135
0.043795 -1.548198 7.757343 23 20 47
0.037108 1.802227 6.343755 125 104 147
0.044078 1.232954 6.407452 82 70 122
0.045280 1.091658 6.541599 48 41 68
0.051349 -0.474543 7.102511 27 23 53
0.050937 0.900719 6.530081 118 97 144
0.062507 -1.802438 7.728825 86 63 87
0.059002 -0.951270 7.088596 67 56 98
0.059002 -0.951270 7.088596 67 56 98
0.066095 -0.515990 7.045993 98 85 140
0.073819 -0.799044 6.993513 25 24 58
0.073819 -0.799044 6.993513 25 24 58
0.069000 1.825687 6.297118 47 40 72
0.078746 0.253566 7.111457 105 90 143
0.081318 -0.024785 7.193273 38 29 62
0.075052 1.930815 6.280324 44 40 50
0.079219 0.937176 6.525578 44 37 65
0.080502 1.063357 6.500672 42 37 67
0.088119 -0.809337 7.087871 25 24 58
0.097493 -1.886613 7.707274 86 71 101
0.101091 0.261798 7.106405 53 41 83
0.101091 0.261798 7.106405 53 41 83
0.100331 -1.055136 6.966470 119 102 155
0.105857 -0.061971 7.176945 41 33 68
0.104703 0.291553 7.085822 105 88 143
0.107872 0.425834 7.097988 23 20 51
0.114791 0.898864 6.502122 117 97 143
0.127259 0.371328 7.082331 30 22 48
0.127259 0.371328 7.082331 30 22 48
0.127457 0.313011 7.084280 47 35 73
0.118732 0.938418 6.478038 55 50 69
0.149593 -2.253999 7.734405 78 62 86
0.143983 0.091915 7.086833 42 33 62
0.168087 -2.230367 7.709140 144 122 141
0.147763 0.930211 6.471158 51 40 73
0.171965 -1.614032 7.542414 140 119 143
0.177991 -1.487867 7.530796 28 22 38
0.289778 2.159340 12.305023 59 50 84
0.289778 2.159340 12.305023 59 50 84
0.154076 1.634121 6.349408 46 37 66
0.154076 1.634121 6.349408 46 37 66
0.155614 1.569205 6.353179 32 30 45
0.165719 0.941808 6.445332 105 90 134
0.184176 0.116772 7.069639 42 35 60
0.197440 -1.555033 7.531133 36 31 67
0.204858 -1.794243 7.592572 79 60 84
0.231854 0.382047 7.017445 32 25 60
0.250003 0.649288 6.957598 50 39 71
0.250003 0.649288 6.957598 50 39 71
0.277950 -1.411092 7.497751 69 56 79
0.235866 0.938225 6.352661 35 31 58
0.234100 1.765527 6.226018 87 73 110
0.241963 1.674633 6.264948 50 40 71
0.241963 1.674633 6.264948 50 40 71
0.244039 1.381416 6.295087 43 34 66
0.253178 1.479549 6.284873 47 39 82
0.283901 0.549162 6.989389 38 34 68
0.263015 0.961644 6.361676 47 40 71
0.309752 -1.570136 7.490895 89 71 94
0.292285 0.989742 6.358438 48 41 68
0.346917 -1.574926 7.468750 84 68 94
0.291314 1.667399 6.230535 57 46 86
0.354249 -1.424159 7.434928 84 67 97
0.357808 -1.926889 7.496104 79 57 76
0.307438 1.130630 6.285094 108 91 144
0.363529 -1.211912 7.392554 76 65 96
0.321752 0.865802 6.487808 60 57 89
0.317011 0.956797 6.325397 44 35 64
0.386882 -1.547004 7.426087 76 58 78
0.358621 -0.000554 6.723131 107 89 136
0.402964 -1.456766 7.380845 140 126 151
0.411949 -2.294229 7.514514 71 57 77
0.411696 -1.429155 7.385300 94 81 110
0.422769 -1.218398 7.364313 85 71 102
0.423910 -1.543926 7.367542 118 102 116
0.448235 -1.726550 7.388910 86 67 97
0.444068 -1.071757 7.314671 79 68 102
0.452273 -1.029067 7.303691 85 62 90
0.467196 -2.280232 7.454130 88 68 93
0.476123 -1.803353 7.379985 91 66 81
0.484971 -1.608479 7.352349 77 61 76
0.485409 -0.772581 7.271843 59 50 74
0.483648 -0.528851 7.195817 83 65 93
0.489893 -1.040788 7.286659 84 68 94
0.450044 0.571470 6.616329 120 101 147
0.497695 -1.067324 7.280739 137 120 145
0.497695 -1.067324 7.280739 137 120 145
0.445894 0.003888 6.464023 30 24 63
0.429617 0.922396 6.220259 108 90 136
0.434949 0.900749 6.240582 52 40 76
0.434863 1.087589 6.216102 60 50 91
0.434863 1.087589 6.216102 60 50 91
0.512502 -1.457312 7.318449 86 74 105
0.458184 -0.097699 6.484214 104 88 142
0.518081 -1.232283 7.275875 77 63 95
0.527562 -2.247803 7.398024 93 65 82
0.471037 0.586660 6.590313 53 41 68
0.529956 -2.126662 7.382595 93 69 87
0.524571 -0.298709 7.165876 65 51 76
0.512814 -0.356315 6.984521 108 97 130
0.459339 1.042815 6.190525 49 41 74
0.498102 0.154780 6.698769 22 23 37
0.550961 -2.266966 7.376653 137 115 132
0.453762 1.258325 6.072088 49 48 89
0.457917 1.468231 6.100420 49 39 68
0.545822 -1.315643 7.272099 75 60 90
0.462581 1.296880 6.129853 24 24 39
0.462581 1.296880 6.129853 24 24 39
0.458864 1.588495 6.073730 52 44 62
0.470313 0.903071 6.191127 45 39 52
0.513215 0.122287 6.629056 28 27 59
0.559285 -1.082240 7.218264 130 114 138
0.572928 -2.086550 7.348964 95 73 99
0.568355 -1.469200 7.278968 66 61 90
0.566596 -1.310830 7.250859 68 51 73
0.574206 -1.834571 7.311270 81 61 84
0.517525 0.579925 6.531310 47 39 65
0.526143 0.261712 6.567445 23 22 47
0.587276 -1.446004 7.275235 138 118 138
0.592119 -2.113712 7.325628 68 59 82
0.502980 0.912940 6.163173 48 42 76
0.536033 0.643723 6.501954 35 33 70
0.599920 -1.266617 7.202211 80 58 75
0.560224 0.376904 6.505357 113 94 143
0.630572 -2.076711 7.319466 61 49 65
0.630489 -1.843439 7.269129 74 57 78
0.638449 -1.484505 7.213044 66 57 85
0.638449 -1.484505 7.213044 66 57 85
0.649497 -2.047265 7.305655 133 111 135
0.584438 0.309189 6.475859 87 75 126
0.654726 -1.846191 7.241544 82 66 91
0.601205 0.214209 6.541159 35 32 68
0.671955 -1.039953 7.132748 73 62 87
0.671955 -1.039953 7.132748 73 62 87
0.684804 -1.863316 7.213654 82 69 98
0.672948 -0.537409 7.069659 81 69 99
0.672948 -0.537409 7.069659 81 69 99
0.580510 1.910656 5.924804 67 57 67
0.712007 -2.155749 7.233529 81 59 74
0.615846 0.901392 6.244727 36 31 50
0.711287 -1.221494 7.113623 77 64 85
0.634384 1.091772 6.250986 58 49 91
0.732291 -0.744179 7.031479 87 67 86
0.732291 -0.744179 7.031479 87 67 86
0.732291 -0.744179 7.031479 87 67 86
0.733844 -0.312232 6.968114 138 119 143
0.748878 -1.235884 7.090111 88 74 93
0.766530 -2.210514 7.191608 88 69 97
0.763526 -1.615039 7.154487 72 49 70
0.684249 0.933363 6.328324 59 48 89
0.773509 -1.465755 7.105046 82 68 93
0.784335 -2.091683 7.164423 81 68 95
0.771506 -0.547760 6.997015 79 63 87
0.724576 0.991014 6.402462 57 40 75
0.797759 -1.243204 7.038426 83 69 93
0.797759 -1.243204 7.038426 83 69 93
0.788614 -0.330293 6.953921 64 53 80
0.801436 -1.472679 7.064791 73 60 86
0.801436 -1.472679 7.064791 73 60 86
0.829943 -2.079805 7.148548 143 118 133
0.786369 0.197490 6.754471 26 27 55
0.824295 -0.788777 6.979395 83 63 77
0.824502 -0.766402 6.967136 145 121 132
0.859151 -2.099957 7.112910 78 61 89
0.847202 -0.326412 6.881054 141 118 142
0.806791 1.058562 6.510427 51 42 80
0.872944 -1.485943 7.016876 72 57 81
0.904375 -2.085289 7.068935 138 117 133
0.907401 -2.067328 7.086973 74 53 77
0.885256 -0.333797 6.901644 145 121 139
0.883512 -0.557191 6.885254 57 49 72
0.893056 -0.117355 6.823138 68 53 79
0.902339 0.606937 6.730574 128 108 119
0.949323 -1.621540 7.006411 68 57 79
0.922694 -0.114912 6.800473 63 50 76
0.940802 -0.802462 6.872684 122 101 115
0.941496 0.157797 6.764088 63 48 64
0.947503 0.144888 6.760954 52 37 48
0.947503 0.144888 6.760954 52 37 48
0.987316 -2.109969 7.005820 71 55 85
0.925550 1.746758 6.539765 63 50 57
0.906812 1.852140 6.401500 71 57 65
0.943767 1.282647 6.569734 46 40 73
0.983875 -0.113003 6.782230 51 44 60
1.015634 -2.112446 6.989688 88 68 90
1.015634 -2.112446 6.989688 88 68 90
1.010440 -1.620272 6.943010 82 69 94
1.010440 -1.620272 6.943010 82 69 94
0.990091 -0.085754 6.736878 137 122 141
1.032672 -1.506420 6.891685 69 58 80
1.032672 -1.506420 6.891685 69 58 80
1.001404 0.193331 6.678798 144 118 137
1.004825 0.153039 6.700233 72 61 80
1.013104 -0.331222 6.750930 141 121 141
0.962024 1.847583 6.353646 67 54 57
0.996229 1.670237 6.540959 130 104 120
1.004019 1.000849 6.572170 66 54 84
1.066655 -2.135808 6.956455 71 57 77
1.044321 -0.795796 6.788149 138 118 132
1.004499 1.551136 6.526976 55 39 58
1.057667 -1.083086 6.858188 47 40 56
1.007232 1.616175 6.526677 59 48 67
1.034892 -0.087733 6.701871 146 127 145
1.065289 -1.852753 6.891232 138 115 126
1.060979 -1.269358 6.843082 69 59 82
1.041942 -0.217099 6.711906 66 53 73
1.041942 -0.217099 6.711906 66 53 73
1.048272 -0.349988 6.743853 48 41 54
1.065164 -1.126458 6.838196 60 49 67
1.065164 -1.126458 6.838196 60 49 67
1.082448 -2.122970 6.920210 119 101 116
1.026357 0.979184 6.561785 120 106 136
1.071851 -1.099269 6.829849 80 70 80
1.082115 -1.637430 6.877155 69 55 75
1.051681 0.861987 6.562346 78 59 75
1.062148 0.571835 6.613997 61 48 66
1.066868 0.194113 6.630818 140 115 133
1.102716 -1.512336 6.829781 74 61 79
1.091879 -0.802820 6.762672 135 118 124
1.059633 1.064520 6.523062 49 35 55
1.059633 1.064520 6.523062 49 35 55
1.059633 1.064520 6.523062 49 35 55
1.071455 0.859650 6.546568 81 65 85
1.067400 1.083563 6.518940 121 104 113
1.110846 -0.806158 6.758448 77 58 74
1.114035 -0.595504 6.747520 125 107 111
1.068855 1.604055 6.452057 35 28 42
1.114788 -0.618585 6.723232 63 54 56
1.114788 -0.618585 6.723232 63 54 56
1.124118 -1.091555 6.770017 121 101 117
1.080601 1.207938 6.501284 143 118 119
1.134118 -1.486301 6.806345 140 115 127
1.079905 1.443513 6.473785 143 119 129
1.079905 1.443513 6.473785 143 119 129
1.135994 -1.117461 6.774055 72 61 85
1.089833 1.166502 6.494980 82 62 79
1.145046 -1.514980 6.803068 61 49 68
1.087935 1.469407 6.455947 136 111 117
1.112602 0.347226 6.592764 80 65 81
1.112602 0.347226 6.592764 80 65 81
1.092880 1.442768 6.466913 90 62 79
1.097382 1.190997 6.488216 145 123 128
1.097382 1.190997 6.488216 145 123 128
1.157299 -1.868019 6.830738 86 66 89
1.150213 -1.284847 6.764804 74 66 89
1.171124 -2.126812 6.871869 74 54 73
1.137217 -0.130673 6.630710 53 47 70
1.116007 1.205523 6.477032 84 60 76
1.161277 -1.284668 6.716394 75 65 88
1.170029 -1.121184 6.743239 64 50 71
1.162694 -0.603029 6.699998 60 46 60
1.112079 1.687130 6.406826 139 108 116
1.176236 -1.365337 6.767728 68 53 70
1.137821 0.554132 6.544353 76 62 78
1.137240 0.580614 6.538985 138 114 125
1.194362 -1.876304 6.819030 83 62 87
1.189714 -1.529338 6.777205 61 52 67
1.189714 -1.529338 6.777205 61 52 67
1.132465 1.398332 6.447701 145 122 125
1.134101 1.081486 6.455583 142 123 141
1.145118 0.783001 6.507401 144 123 131
1.166008 -0.121501 6.619386 78 63 76
1.156472 0.163020 6.564918 135 116 132
1.187507 -1.285233 6.739861 68 56 78
1.181273 -0.833891 6.702963 84 69 84
1.161294 0.557204 6.529071 66 50 72
1.153631 0.807898 6.480242 129 114 141
1.146016 1.373633 6.425295 61 53 75
1.194110 -0.902587 6.688828 64 49 67
1.180913 -0.089184 6.594124 143 122 145
1.145187 1.695922 6.383131 138 101 108
1.212236 -1.368808 6.743088 60 49 70
1.209381 -1.323807 6.719161 76 63 85
1.182536 0.085292 6.560542 135 114 136
1.153103 1.672853 6.397352 49 34 45
1.208031 -1.096975 6.696336 80 62 80
1.200469 -0.377308 6.644633 60 48 71
1.153649 1.649128 6.384965 109 92 101
1.153649 1.649128 6.384965 109 92 101
1.209403 -0.829838 6.668335 85 60 73
1.210670 -0.892685 6.674546 127 114 139
1.239198 -2.104923 6.814632 139 113 126
1.226303 -1.290790 6.723069 81 64 89
1.208808 -0.129633 6.609693 53 45 56
1.187142 0.762399 6.477631 127 108 125
1.187142 0.762399 6.477631 127 108 125
1.187855 0.537468 6.477238 78 63 83
1.177008 1.389387 6.403234 69 49 64
1.214344 -0.344610 6.590778 141 116 130
1.255073 -2.094894 6.784375 92 66 83
1.236270 -1.125182 6.679003 70 57 82
1.177682 1.513750 6.351896 79 60 76
1.215506 0.065021 6.551291 67 49 66
1.215506 0.065021 6.551291 67 49 66
1.194227 0.988016 6.427593 70 50 68
1.220575 -0.030142 6.546760 78 58 78
1.144100 1.974407 6.127346 136 120 106
1.209805 0.961426 6.432320 150 129 132
1.209805 0.961426 6.432320 150 129 132
1.213124 0.699208 6.442019 68 55 77
1.260886 -1.323454 6.689022 129 110 129
1.269638 -1.712483 6.716051 84 64 90
1.245572 -0.149459 6.585366 44 38 53
1.245572 -0.149459 6.585366 44 38 53
1.264357 -1.279380 6.670593 94 73 93
1.208586 1.177123 6.371445 66 55 73
1.206457 1.644605 6.347064 138 115 121
1.206457 1.644605 6.347064 138 115 121
1.206656 1.538697 6.334548 116 95 119
1.281335 -1.735683 6.712401 129 110 131
1.281335 -1.735683 6.712401 129 110 131
1.224533 0.996600 6.411973 69 48 59
1.238165 0.959108 6.419822 57 48 71
1.273782 -0.832752 6.603423 58 41 61
1.237839 0.799673 6.408619 126 108 131
1.249551 0.551456 6.437685 82 60 77
1.275776 -0.431386 6.559610 121 100 125
1.239481 1.368075 6.359240 83 64 82
1.284214 -0.589786 6.575856 127 109 120
1.304424 -1.372537 6.662337 45 33 45
1.296294 -0.858623 6.595692 69 59 89
1.291198 -0.408111 6.556442 57 44 57
1.291198 -0.408111 6.556442 57 44 57
1.272829 0.396831 6.460875 134 119 122
1.313555 -1.295228 6.655349 67 51 71
1.317285 -1.433017 6.643714 146 121 135
1.259742 1.336001 6.340394 146 123 128
1.316425 -1.132626 6.622456 72 59 80
1.246713 1.719635 6.270514 76 68 73
1.262747 1.234613 6.348005 144 122 124
1.284353 0.383557 6.442759 75 62 77
1.327767 -1.354318 6.660763 123 103 125
1.252841 1.688885 6.282361 73 60 83
1.334446 -1.800773 6.683509 85 65 83
1.252985 1.586444 6.275099 120 98 120
1.316097 -0.606473 6.562800 52 47 69
1.266115 1.627512 6.305133 52 41 52
1.332729 -1.384079 6.630484 64 55 75
1.348235 -1.652341 6.669969 82 61 77
1.298895 0.539713 6.423640 84 69 92
1.284105 1.259276 6.320138 79 65 84
1.301743 1.218121 6.308128 159 130 144
1.298580 1.639901 6.262803 123 109 135
1.358668 -0.862563 6.552012 64 53 77
1.329680 0.542920 6.393950 80 67 93
1.381180 -1.645126 6.618404 74 57 79
1.381180 -1.645126 6.618404 74 57 79
1.349736 0.368335 6.396122 79 65 83
1.341792 0.913098 6.343198 177 72 30
1.398928 -1.388978 6.602774 60 49 65
1.398928 -1.388978 6.602774 60 49 65
1.400240 -1.125415 6.574812 71 51 57
1.334706 1.395287 6.257886 154 122 133
1.402380 -1.274133 6.564177 145 123 138
1.402135 -0.865885 6.514156 53 46 65
1.351153 1.378442 6.270087 86 71 94
1.415439 -1.386050 6.566407 51 43 63
1.376567 0.342238 6.378016 69 56 76
1.376567 0.342238 6.378016 69 56 76
1.354466 1.213174 6.268301 157 131 146
1.417791 -1.293283 6.561857 61 44 55
1.346242 1.556686 6.221090 129 109 130
1.414126 -0.624846 6.502712 60 50 70
1.363755 1.185273 6.262479 66 52 73
1.387591 0.364469 6.363360 89 71 93
1.424710 -1.287883 6.529264 63 49 62
1.358675 1.635182 6.210638 135 114 136
1.441048 -1.631807 6.581788 128 107 131
1.406173 -0.148520 6.413213 51 44 65
1.444303 -1.544553 6.570498 62 51 74
1.444186 -1.650641 6.567864 57 42 53
1.437076 -1.333742 6.534867 70 53 67
1.376914 0.916268 6.254757 207 111 71
1.439306 -1.352523 6.538662 132 112 129
1.376052 1.204348 6.246236 154 128 138
1.389531 0.644366 6.305414 84 64 87
1.423139 -0.355150 6.432037 89 69 86
1.448689 -1.431660 6.539177 77 63 86
1.448689 -1.431660 6.539177 77 63 86
1.388345 0.937257 6.265740 107 45 40
1.427338 -0.390470 6.433034 55 43 63
1.375013 1.593408 6.168737 54 42 59
1.433917 -0.366349 6.428730 142 125 134
1.437679 -0.339881 6.417599 81 60 77
1.437679 -0.339881 6.417599 81 60 77
1.462212 -1.117479 6.485421 70 56 68
1.474611 -1.382961 6.511841 70 56 73
1.474611 -1.382961 6.511841 70 56 73
1.445185 0.118547 6.357305 76 64 91
1.445185 0.118547 6.357305 76 64 91
1.448340 0.137988 6.357423 132 110 129
1.448340 0.137988 6.357423 132 110 129
1.411538 1.625460 6.166529 125 106 115
1.497452 -1.658000 6.541835 59 41 57
1.497452 -1.658000 6.541835 59 41 57
1.413026 1.602253 6.157636 59 49 62
1.501638 -1.546744 6.518970 63 55 76
1.515913 -2.021003 6.573592 83 64 81
1.509100 -1.643923 6.529014 122 102 124
1.423943 1.645573 6.140790 88 63 79
1.485889 -0.411518 6.396424 76 68 94
1.518702 -1.370869 6.485178 70 53 66
1.451101 1.282654 6.177894 94 75 97
1.444120 1.624257 6.140607 125 101 111
1.529259 -1.519748 6.485101 141 115 128
1.455608 1.388766 6.145146 136 115 131
1.495729 0.093678 6.314525 124 110 134
1.459600 1.360347 6.158635 63 50 66
1.450092 1.698016 6.107742 88 74 102
1.539612 -1.394108 6.471486 136 115 120
1.517037 -0.614939 6.374874 78 61 85
1.545846 -1.657512 6.495169 66 52 64
1.543880 -1.500975 6.485419 127 102 112
1.538940 -1.102721 6.455343 131 117 141
1.551586 -1.709087 6.491972 72 56 80
1.548286 -1.381776 6.471312 68 46 61
1.554633 -1.641741 6.497282 133 107 126
1.567344 -1.951315 6.529609 124 105 121
1.570872 -1.926890 6.533677 60 43 55
1.570872 -1.926890 6.533677 60 43 55
1.541464 -0.866752 6.403189 80 65 96
1.498475 0.688313 6.210910 132 115 138
1.563653 -1.679616 6.473732 121 104 127
1.519065 0.106662 6.285501 52 46 67
1.519065 0.106662 6.285501 52 46 67
1.508067 0.482886 6.227644 87 68 84
1.519619 0.369608 6.264730 124 109 121
1.559610 -1.127960 6.414666 55 41 53
1.525656 0.384682 6.266102 77 60 76
1.577241 -1.395851 6.462982 78 58 72
1.564480 -1.104434 6.403268 130 112 136
1.492774 1.609158 6.106891 79 59 75
1.458004 1.789267 5.941109 79 59 72
1.458004 1.789267 5.941109 79 59 72
1.589459 -1.628361 6.464880 121 97 116
1.602776 -1.663174 6.475179 40 30 39
1.602776 -1.663174 6.475179 40 30 39
1.565003 -0.182847 6.320767 58 45 61
1.546919 0.392454 6.242817 133 112 132
1.571806 -0.412676 6.335855 62 50 72
1.571806 -0.412676 6.335855 62 50 72
1.602175 -1.682797 6.451815 117 99 124
1.557567 0.390295 6.214265 140 122 145
1.533004 1.345298 6.107398 72 57 73
1.564493 0.372229 6.226816 79 61 76
1.604975 -1.134017 6.378514 71 61 75
1.538916 1.077495 6.114573 91 71 76
1.545773 1.022599 6.131587 83 62 76
1.531057 1.622985 6.068098 129 104 108
1.576428 0.146543 6.229779 55 36 50
1.565725 0.976746 6.157859 58 47 65
1.617666 -1.102335 6.361082 123 108 136
1.645927 -1.672276 6.415896 64 47 59
1.645927 -1.672276 6.415896 64 47 59
1.511287 1.795324 5.884410 85 68 80
1.632314 -0.872522 6.325555 58 47 67
1.598642 0.347745 6.191357 52 39 56
1.598642 0.347745 6.191357 52 39 56
1.594009 0.416170 6.171954 139 122 146
1.655751 -1.693340 6.405605 124 104 128
1.659454 -1.721686 6.412522 84 66 94
1.659454 -1.721686 6.412522 84 66 94
1.576868 1.619102 6.043964 71 58 64
1.614669 0.359226 6.158447 127 108 125
1.614857 0.513259 6.141123 78 60 83
1.600901 1.189481 6.066861 139 114 125
1.642392 0.111693 6.196618 67 57 73
1.673006 -0.873434 6.294807 64 50 71
1.602001 1.645576 6.015829 144 121 138
1.659561 -0.181326 6.211447 50 43 69
1.642073 0.737537 6.108575 133 115 126
1.731996 -1.677357 6.360198 52 32 46
1.711623 -0.947111 6.271102 82 62 89
1.711623 -0.947111 6.271102 82 62 89
1.702861 -0.597389 6.225884 120 98 122
1.650925 1.167647 6.029967 134 114 130
1.639216 1.633774 5.972921 133 114 132
1.726340 -0.875994 6.262282 70 51 72
1.749862 -1.677379 6.339503 57 43 50
1.749862 -1.677379 6.339503 57 43 50
1.720310 -0.627723 6.226216 46 39 55
1.667429 1.150362 6.025331 69 57 70
1.734020 -0.944311 6.252126 134 110 133
1.694131 0.338985 6.107176 62 49 69
1.669510 1.173159 6.002101 130 114 135
1.739608 -0.924937 6.250493 74 60 82
1.739608 -0.924937 6.250493 74 60 82
1.660904 1.630254 5.945848 120 106 131
1.780452 -1.943791 6.365553 75 54 75
1.777936 -1.946004 6.356421 85 68 87
1.683970 1.309807 6.005966 73 57 69
1.689675 1.012263 6.016341 74 65 92
1.743738 -0.425877 6.189473 61 51 74
1.747866 -0.611992 6.203542 125 106 125
1.739918 -0.179582 6.163482 55 45 63
1.790551 -1.685675 6.324517 54 35 50
1.791045 -1.686056 6.325609 54 35 50
1.791045 -1.686056 6.325609 54 35 50
1.770702 -1.124356 6.250651 142 119 137
1.714010 0.716094 6.049045 61 48 66
1.720889 0.372537 6.070907 83 71 94
1.717227 0.737200 6.052743 132 111 126
1.709422 1.138287 5.985405 63 51 70
1.709422 1.138287 5.985405 63 51 70
1.711124 1.163945 5.984158 129 112 124
1.722415 0.959700 6.013513 94 75 102
1.708147 1.322453 5.960945 60 50 67
1.785948 -0.940296 6.215031 78 57 81
1.778363 -0.178425 6.126035 39 31 46
1.837102 -1.956674 6.324285 57 44 60
1.791702 -0.613312 6.162847 123 103 127
1.722072 1.554178 5.908335 130 115 139
1.845262 -1.936051 6.319634 131 111 127
1.737293 1.316958 5.942910 67 57 78
1.760133 0.678453 6.011114 122 107 133
1.816025 -0.884810 6.186601 79 63 88
1.816025 -0.884810 6.186601 79 63 88
1.786083 0.052855 6.071029 136 120 138
1.786083 0.052855 6.071029 136 120 138
1.732975 1.630542 5.888680 75 59 80
1.817215 -0.636735 6.152653 58 48 64
1.855812 -1.680707 6.281824 68 56 63
1.803644 -0.139970 6.098341 134 115 131
1.851982 -1.615329 6.261401 77 51 65
1.835957 -1.153100 6.184433 80 64 73
1.815590 -0.169936 6.092894 107 89 107
1.816265 -0.153572 6.094412 60 48 66
1.805944 0.057542 6.059546 64 50 72
1.784723 0.724424 5.981113 125 107 125
1.809832 0.017267 6.062025 84 63 85
1.873330 -1.670187 6.262474 61 40 51
1.762553 1.631671 5.866186 127 111 133
1.820574 0.039000 6.052730 131 109 126
1.820574 0.039000 6.052730 131 109 126
1.825277 0.363421 6.008126 149 124 136
1.846303 -0.187795 6.073675 39 29 37
1.812729 0.715680 5.962734 133 121 140
1.812729 0.715680 5.962734 133 121 140
1.895693 -1.690075 6.235451 59 47 62
1.807351 1.101685 5.908088 132 115 134
1.841915 0.331444 6.004056 46 38 49
1.830751 0.460811 5.962696 81 62 79
1.839442 0.412346 5.985428 82 63 78
1.839442 0.412346 5.985428 82 63 78
1.925074 -1.958076 6.258953 88 63 73
1.812762 1.314701 5.879062 56 49 69
1.867502 0.091211 6.019104 128 110 131
1.812381 1.537953 5.839041 139 120 137
1.893301 -0.655439 6.100346 77 66 88
1.864434 0.340153 5.978233 131 113 128
1.884644 0.078049 6.001148 60 49 66
1.872175 0.495443 5.960924 80 64 83
1.889965 0.096233 6.000949 128 107 127
1.831520 1.651571 5.803360 77 65 82
1.839905 1.628855 5.810151 152 126 139
1.865937 0.930185 5.882822 120 107 131
1.880381 0.650094 5.918307 133 121 151
1.867066 1.119020 5.863628 63 48 68
1.851075 1.591975 5.809910 62 53 61
1.884192 0.694790 5.899084 72 59 80
1.894207 0.934146 5.865137 71 56 78
1.876432 1.591299 5.800651 115 95 97
1.876432 1.591299 5.800651 115 95 97
1.912133 0.936959 5.851332 78 60 74
1.857697 1.765997 5.604370 111 99 114
1.924534 1.293259 5.786396 78 61 73
1.860508 1.918662 5.588860 97 86 98
1.918378 1.566142 5.755850 50 36 49
1.865459 1.799533 5.588979 122 105 115
1.877730 1.774609 5.589164 29 17 14
1.889001 1.748335 5.583111 102 93 103
1.964918 0.930555 5.803773 67 49 66
1.946102 1.576945 5.736332 138 111 111
1.945548 1.558344 5.734041 60 47 64
1.956435 1.515692 5.724558 123 104 124
1.902343 1.887960 5.564645 241 173 153
1.902895 1.783105 5.565369 252 184 165
1.986115 0.949626 5.789010 126 111 131
2.079153 -1.463226 6.054168 89 66 93
1.974504 1.536846 5.713291 63 50 72
1.985016 1.519188 5.711923 126 109 131
1.983467 1.564159 5.703848 60 43 58
1.937675 1.777400 5.514582 39 22 18
2.061127 0.257648 5.829206 131 112 133
2.026251 1.124452 5.723599 125 114 137
2.084928 -0.291583 5.887072 72 61 85
2.022786 1.289842 5.693663 115 103 127
2.028376 1.559121 5.679813 56 45 65
1.974564 1.786455 5.505280 39 23 16
1.974564 1.786455 5.505280 39 23 16
1.973534 1.926973 5.458217 131 112 101
2.025663 1.651327 5.596764 140 124 130
2.137106 -0.453947 5.895300 65 48 65
2.102182 0.471394 5.764153 63 49 70
2.102182 0.471394 5.764153 63 49 70
2.008705 1.887038 5.460839 38 21 16
2.093359 1.117855 5.670257 117 104 126
2.122537 0.467947 5.747333 68 47 64
2.022601 1.919111 5.432121 66 61 60
2.031996 1.818825 5.452397 250 178 160
2.038172 1.759260 5.454457 254 185 164
2.058936 1.708220 5.452937 139 123 134
2.068195 1.746035 5.436678 28 16 12
2.079931 1.894708 5.408555 21 15 10
2.473513 -0.993240 6.330335 110 87 85
